# .PCD v0.7 - Point Cloud Data file format
VERSION 0.7
FIELDS x y z intensity
SIZE 4 4 4 4
TYPE F F F F
COUNT 1 1 1 1
WIDTH 1302
HEIGHT 1
VIEWPOINT 0 0 0 1 0 0 0
POINTS 1302
DATA ascii
2.386274 8.590940 2.371117 51.000000
3.832388 7.525495 2.444645 39.000000
3.847066 7.511417 3.378322 16.000000
3.863785 7.564233 2.921119 26.000000
1.686723 6.387705 3.706318 7.000000
3.715923 7.022961 6.482306 5.000000
2.883346 5.601702 3.302238 18.000000
3.987845 7.639441 5.058649 10.000000
3.860246 7.481264 3.370330 18.000000
3.854788 7.512621 2.444416 31.000000
2.408566 8.570322 2.367600 34.000000
1.680472 6.362442 4.143588 8.000000
1.708464 6.390666 3.711138 10.000000
2.416991 8.669600 3.378011 29.000000
2.381452 8.602185 3.869109 9.000000
3.593963 6.753552 6.930354 8.000000
3.883635 7.546253 2.918932 21.000000
2.420360 8.642941 2.869970 26.000000
3.932027 7.502573 5.571028 6.000000
3.855039 7.318745 6.066123 7.000000
3.904741 7.530736 2.917702 40.000000
2.442813 8.622416 2.865783 26.000000
3.742724 7.021564 6.491766 8.000000
2.898610 5.589461 3.300438 13.000000
1.719109 6.354856 3.693719 7.000000
3.999027 7.604883 5.044166 7.000000
3.876234 7.497985 2.443647 40.000000
3.876781 7.457673 3.365262 16.000000
2.430470 8.548722 2.363834 43.000000
2.401858 8.575179 3.860466 13.000000
1.694845 6.339847 4.132493 17.000000
2.439324 8.648401 3.372816 33.000000
3.925779 7.515166 2.916475 31.000000
3.772552 7.025525 6.506250 11.000000
2.902377 5.556062 3.286310 24.000000
3.897162 7.482447 2.442609 37.000000
1.740297 6.356024 3.697574 10.000000
2.460735 8.624450 3.366586 36.000000
1.710968 6.323754 4.125621 16.000000
4.019124 7.587059 5.040707 17.000000
2.464879 8.600923 2.861300 21.000000
2.428112 8.568415 3.860852 9.000000
2.452810 8.528926 2.360572 44.000000
3.977732 7.478643 5.571667 9.000000
3.903789 7.453730 3.368959 10.000000
1.756334 6.339486 3.691276 11.000000
3.948124 7.502033 2.916202 30.000000
2.933255 5.572667 3.301406 19.000000
2.447509 8.538657 3.851033 5.000000
3.920786 7.471926 2.443195 41.000000
3.685477 6.774182 6.986532 7.000000
3.927886 7.294406 6.076236 6.000000
1.727968 6.310884 4.120860 14.000000
2.490719 8.592161 2.860996 15.000000
4.039165 7.569175 5.037248 8.000000
2.476192 8.512774 2.358311 39.000000
3.920172 7.430044 3.363892 12.000000
3.999528 7.464733 5.570625 5.000000
2.484474 8.608532 3.363468 27.000000
3.968163 7.484669 2.914337 36.000000
1.742272 6.289004 4.110295 16.000000
2.504258 8.543164 2.847554 27.000000
2.465954 8.506220 3.840036 15.000000
4.065412 7.562603 5.041304 8.000000
2.499220 8.495634 2.355801 44.000000
3.948946 7.429201 3.369050 14.000000
2.949263 5.561847 3.300521 17.000000
2.507872 8.591651 3.360005 28.000000
1.773537 6.327103 3.687396 18.000000
3.942090 7.457099 2.442428 39.000000
1.756218 6.266282 4.099204 19.000000
3.989957 7.470577 2.913747 28.000000
3.855929 7.025158 6.539031 7.000000
2.491218 8.496616 3.839246 10.000000
2.523599 8.483055 2.354544 47.000000
2.526539 8.523343 2.843669 23.000000
3.955315 7.387469 3.355950 17.000000
2.968679 5.557208 3.303289 17.000000
4.104904 7.635741 3.981433 10.000000
2.532569 8.579191 3.358272 29.000000
4.033176 7.419144 5.555471 8.000000
3.958719 7.433768 2.438952 29.000000
4.082825 7.540056 5.034840 14.000000
1.789421 6.310483 3.681100 14.000000
2.517522 8.490455 3.840029 12.000000
1.772482 6.251667 4.093389 18.000000
2.555251 8.560390 3.354120 34.000000
1.808014 6.303039 3.680122 14.000000
2.548205 8.471333 2.353540 37.000000
3.974543 7.369387 3.353442 16.000000
4.111121 7.537112 5.041404 10.000000
2.986357 5.549397 3.304232 23.000000
4.116073 7.601395 3.970378 4.000000
4.012151 7.457257 2.913477 43.000000
2.548996 8.504378 2.840084 20.000000
3.980809 7.420527 2.438729 41.000000
4.133914 7.524263 5.041456 16.000000
1.788429 6.236198 4.087047 12.000000
2.572474 8.458616 2.352287 49.000000
3.998238 7.359384 3.354586 19.000000
2.579535 8.546903 3.352043 27.000000
2.572802 8.489905 2.837993 20.000000
3.999122 7.400486 2.436339 47.000000
3.000967 5.536099 3.301979 16.000000
2.536408 8.460507 3.830213 12.000000
4.035226 7.445525 2.913845 30.000000
1.819897 6.273783 3.666575 11.000000
3.924446 6.997552 6.547336 5.000000
4.163947 7.524133 5.050025 6.000000
4.017816 7.341995 3.352443 16.000000
3.016846 5.525082 3.301096 18.000000
2.603776 8.533342 3.349967 36.000000
1.836563 6.260396 3.662214 11.000000
2.595978 8.473544 2.835304 25.000000
4.022059 7.388797 2.436658 59.000000
4.056890 7.431235 2.913256 37.000000
4.150452 7.554934 3.959784 8.000000
4.105728 7.390584 5.562703 5.000000
2.564847 8.461219 3.834136 14.000000
2.597294 8.447670 2.351533 47.000000
1.803810 6.219066 4.079650 9.000000
1.817838 6.197841 4.069617 15.000000
4.163888 7.525311 3.951198 3.000000
4.175107 7.490838 5.036549 11.000000
4.036455 7.361942 2.432101 42.000000
4.078032 7.416061 2.912351 28.000000
3.032683 5.514022 3.300215 22.000000
2.584915 8.435550 3.826284 10.000000
2.620873 8.432970 2.349780 52.000000
2.624796 8.509888 3.344087 46.000000
2.617607 8.452581 2.831124 37.000000
1.848964 6.233603 3.650118 19.000000
4.036860 7.323748 3.349936 26.000000
2.647297 8.698189 4.494959 4.000000
2.649744 8.498881 3.343051 28.000000
3.038737 5.485943 3.289287 15.000000
4.055468 7.343446 2.430256 47.000000
4.206394 7.492795 5.046625 17.000000
4.183961 7.507549 3.948783 10.000000
1.869951 6.234326 3.653978 12.000000
2.641490 8.438826 2.829334 31.000000
4.142797 7.351791 5.553005 5.000000
4.100050 7.402478 2.912085 33.000000
1.834804 6.186315 4.065915 18.000000
4.062741 7.317588 3.352909 17.000000
2.644379 8.418205 2.348027 32.000000
2.608797 8.422094 3.823930 9.000000
4.080136 7.334932 2.431662 60.000000
3.064234 5.491771 3.298452 21.000000
4.087234 7.308915 3.354787 17.000000
4.222540 7.468427 5.039164 7.000000
2.666911 8.400618 2.345524 42.000000
1.850435 6.170693 4.059576 15.000000
2.629774 8.399825 3.817650 13.000000
2.672021 8.479775 3.338903 32.000000
4.195327 7.474726 3.938553 4.000000
1.876532 6.189968 3.631730 18.000000
4.122026 7.388829 2.911819 31.000000
2.665914 8.426816 2.828142 27.000000
4.161212 7.332328 5.548157 8.000000
4.101442 7.320489 2.431171 62.000000
2.695696 8.465065 3.336484 35.000000
1.895277 6.183932 3.631723 14.000000
2.689399 8.412017 2.826054 32.000000
1.865218 6.152607 4.051653 18.000000
4.243390 7.452245 5.037214 6.000000
4.183378 7.319327 5.548210 8.000000
2.662158 8.412447 3.827073 15.000000
4.105665 7.289678 3.351917 22.000000
2.687842 8.378377 2.341767 58.000000
4.138286 7.365254 2.907730 40.000000
3.077274 5.475960 3.294832 20.000000
1.908013 6.159538 3.621080 14.000000
2.710993 8.391725 2.822175 30.000000
2.684191 8.393533 3.822365 14.000000
4.199531 7.296149 5.540639 8.000000
4.158247 7.348208 2.906191 55.000000
4.120284 7.301821 2.429327 47.000000
4.125889 7.273615 3.350508 23.000000
2.709588 8.358839 2.338763 44.000000
2.718708 8.448509 3.333375 37.000000
3.088447 5.457050 3.289385 18.000000
1.878337 6.129639 4.040567 15.000000
4.266372 7.439736 5.037771 12.000000
2.730912 8.338334 2.335510 45.000000
4.147924 7.260717 3.350564 22.000000
2.741628 8.431895 3.330268 38.000000
3.100882 5.440427 3.285309 17.000000
2.709633 8.385028 3.822370 11.000000
2.507696 8.204236 6.697122 4.000000
2.610827 8.407335 6.171328 5.000000
2.735846 8.381324 2.821584 32.000000
1.925829 6.150915 3.619624 17.000000
4.296357 7.439077 5.046349 10.000000
1.893702 6.113914 4.034229 18.000000
4.145827 7.294755 2.431278 59.000000
4.179087 7.332753 2.905291 43.000000
4.310431 7.411543 5.036886 8.000000
2.730031 8.361638 3.815701 21.000000
3.123700 5.441368 3.291738 22.000000
2.751516 8.315944 2.331757 36.000000
4.181284 7.266987 3.359385 14.000000
2.763572 8.412555 3.326123 27.000000
1.943062 6.140579 3.617201 16.000000
4.170886 7.286767 2.432959 65.000000
2.629872 8.379547 6.157070 4.000000
4.231940 7.250432 5.526046 7.000000
1.910062 6.101378 4.030003 10.000000
4.198436 7.314785 2.903435 41.000000
2.759122 8.366334 2.819499 29.000000
2.787272 8.398478 3.324053 34.000000
2.781098 8.347669 2.816220 23.000000
3.132402 5.418549 3.284009 21.000000
1.958019 6.123559 3.610912 11.000000
3.475282 5.805243 6.815422 4.000000
4.216759 7.295131 2.900942 28.000000
1.926103 6.087993 4.025249 11.000000
2.761362 8.370389 3.823558 12.000000
4.191535 7.271230 2.432201 40.000000
3.502981 6.058048 3.229100 5.000000
2.772657 8.295331 2.328505 36.000000
4.192374 7.235507 3.351038 12.000000
4.334189 7.400309 5.038446 10.000000
4.263547 7.203860 5.510908 5.000000
2.809060 8.379018 3.319909 31.000000
2.804558 8.333452 2.814435 27.000000
1.942352 6.075370 4.021024 15.000000
2.786450 8.360775 3.823171 14.000000
4.215082 7.260599 2.433069 53.000000
3.530241 6.061894 3.236960 4.000000
4.209527 7.214410 3.347441 24.000000
4.237430 7.279502 2.900042 45.000000
4.364634 7.400107 5.047526 8.000000
2.795619 8.280149 2.326757 29.000000
1.977692 6.120589 3.612843 16.000000
3.151551 5.413255 3.286785 39.000000
2.674052 8.343333 6.142816 7.000000
2.804814 8.331990 3.814150 6.000000
2.818178 8.263994 2.324761 34.000000
2.833542 8.367473 3.318881 21.000000
4.236611 7.246596 2.432856 51.000000
4.281808 7.184830 5.506609 7.000000
2.828262 8.320074 2.812951 30.000000
4.260475 7.267886 2.900738 30.000000
4.389254 7.390185 5.050094 13.000000
4.231383 7.201256 3.347499 10.000000
1.960178 6.067531 4.019965 10.000000
3.558964 6.067977 3.246057 20.000000
1.991943 6.101832 3.605587 12.000000
3.162848 5.394968 3.281797 14.000000
4.300433 7.166469 5.502857 11.000000
2.850630 8.303033 2.810273 22.000000
4.409335 7.372804 5.047650 20.000000
4.275636 7.243221 2.896337 43.000000
2.009835 6.093793 3.604617 14.000000
3.171746 5.372866 3.274527 24.000000
2.828234 8.317914 3.811804 7.000000
1.976316 6.054820 4.015741 10.000000
3.582070 6.064597 3.250216 17.000000
4.257547 7.195198 3.350846 12.000000
2.839036 8.243221 2.321512 37.000000
2.851389 8.337288 3.310589 30.000000
4.254614 7.226763 2.430746 33.000000
2.875111 8.323850 3.308869 31.000000
2.851922 8.304634 3.809849 11.000000
3.616152 6.079000 3.263840 19.000000
1.992407 6.042064 4.011518 18.000000
2.861125 8.226037 2.319266 48.000000
4.287124 7.194599 3.356749 8.000000
3.170765 5.334840 3.257664 18.000000
4.300074 7.233902 2.897988 34.000000
2.026549 6.082397 3.601714 18.000000
2.871645 8.282336 2.806400 25.000000
4.430275 7.356833 5.046207 10.000000
4.268048 7.199475 2.426196 27.000000
3.640785 6.077737 3.269236 24.000000
2.884132 8.211521 2.317772 41.000000
3.184097 5.320318 3.254961 16.000000
2.870262 8.276575 3.801221 12.000000
2.038828 6.058578 3.591559 19.000000
2.892714 8.293580 3.300577 31.000000
4.320530 7.218036 2.897091 33.000000
4.453899 7.345213 5.047773 12.000000
4.293418 7.191875 2.428151 36.000000
2.931969 8.508405 4.451619 8.000000
2.894517 8.266970 2.804320 36.000000
2.012097 6.039687 4.014154 9.000000
4.339719 7.133149 5.498073 6.000000
4.305520 7.175651 3.354250 7.000000
4.472434 7.325454 5.043828 15.000000
2.056870 6.051226 3.591075 12.000000
3.660625 6.068645 3.270518 24.000000
2.889699 8.251944 3.794166 13.000000
3.541245 5.679480 6.745155 7.000000
4.206049 6.803563 6.532396 7.000000
3.190777 5.295200 3.245864 21.000000
4.312710 7.174363 2.426856 44.000000
2.906060 8.194221 2.315528 48.000000
2.916322 8.248858 2.801345 33.000000
4.361265 7.119610 5.498135 5.000000
2.028945 6.029240 4.011515 8.000000
4.334939 7.192446 2.892373 41.000000
2.914330 8.274741 3.296784 36.000000
4.489505 7.303454 5.038381 13.000000
2.917562 8.250584 3.797712 13.000000
4.331427 7.155983 2.425292 51.000000
2.928583 8.178679 2.313787 46.000000
2.047178 6.022745 4.011514 9.000000
3.680443 6.059488 3.271801 22.000000
2.939368 8.234270 2.799567 25.000000
4.384111 7.108135 5.499833 12.000000
4.352897 7.155012 3.357296 8.000000
2.934234 8.251448 3.291263 34.000000
4.361749 7.186956 2.895622 32.000000
3.549081 5.654109 6.728273 5.000000
4.225301 6.788474 6.530573 6.000000
3.199698 5.273859 3.239051 14.000000
2.062693 6.010067 3.570767 21.000000
3.204727 5.246490 3.228584 9.000000
3.547524 5.614483 6.694461 4.000000
2.044466 6.026926 4.479612 5.000000
4.347536 7.133465 2.422370 50.000000
2.928539 8.203414 3.780449 11.000000
2.058764 5.997818 3.999378 14.000000
2.961895 8.249208 3.294043 23.000000
3.703163 6.054889 3.275553 19.000000
4.401541 7.088088 5.494992 6.000000
2.960032 8.213355 2.795697 23.000000
2.081791 6.005932 3.572218 19.000000
2.950715 8.162165 2.311795 43.000000
4.379020 7.166098 2.892815 34.000000
4.506036 7.280678 5.032430 17.000000
4.417123 7.160795 3.372765 9.000000
2.076622 5.990433 3.998852 12.000000
2.064362 6.025021 4.483035 13.000000
2.973461 8.147402 2.310304 42.000000
2.982974 8.229309 3.289905 26.000000
2.982618 8.197748 2.793620 29.000000
4.524336 7.260787 5.028485 11.000000
4.397219 7.146803 2.890646 34.000000
3.209144 5.218388 3.217660 26.000000
3.563640 5.602185 6.693097 4.000000
4.365600 7.114173 2.420533 49.000000
2.957608 8.205359 3.785566 10.000000
2.099978 5.999272 3.572220 10.000000
3.719549 6.040198 3.273955 9.000000
2.109903 5.970405 3.559166 31.000000
3.220609 5.201551 3.213589 13.000000
3.005123 8.182084 2.791545 27.000000
3.001616 8.203221 3.283348 35.000000
2.994750 8.128963 2.307813 44.000000
4.439817 7.148579 3.373560 7.000000
2.092978 5.979011 3.995687 20.000000
4.415836 7.128273 2.888799 33.000000
2.082289 6.017650 4.482466 13.000000
4.537398 7.232850 5.019029 8.000000
4.385635 7.098099 2.419784 49.000000
4.466493 7.142564 3.377280 6.000000
2.100756 6.011767 4.483037 15.000000
3.018040 8.115891 2.306827 34.000000
4.555970 7.213622 5.015589 14.000000
4.404578 7.080347 2.418493 56.000000
2.113130 5.977895 3.999383 13.000000
2.131351 5.972677 3.564487 20.000000
4.449183 7.132860 2.896194 28.000000
4.397547 6.907428 6.013608 7.000000
3.561604 5.526096 6.629001 7.000000
3.003072 8.175435 3.780493 5.000000
4.467023 7.048818 5.496822 9.000000
3.029513 8.201634 3.286478 25.000000
3.754600 6.014534 3.272822 5.000000
3.026873 8.164578 2.788873 41.000000
3.227663 5.177964 3.205406 19.000000
4.468252 7.114981 2.894665 25.000000
3.027537 8.165097 3.780115 8.000000
3.039540 8.098236 2.304587 47.000000
2.133901 5.978301 4.004134 16.000000
3.233643 5.152884 3.196310 15.000000
4.567400 7.183462 5.004628 14.000000
2.118646 6.004285 4.482470 13.000000
4.486947 7.032781 5.495253 6.000000
2.154082 5.978146 3.571744 17.000000
4.423985 7.063346 2.417472 52.000000
3.056092 8.196447 3.288224 26.000000
3.049250 8.148790 2.786799 35.000000
3.547498 5.468986 6.574025 8.000000
4.401956 6.868675 5.991953 8.000000
4.445420 7.049527 2.417536 47.000000
3.238043 5.125581 3.185844 25.000000
3.062730 8.085031 2.303601 53.000000
2.138527 6.002134 4.485894 11.000000
2.161913 5.997702 4.021552 9.000000
3.071909 8.133831 2.785024 37.000000
2.171558 5.969631 3.570781 17.000000
3.076880 8.176311 3.284090 27.000000
3.058616 8.171836 3.787592 5.000000
4.486739 7.096256 2.892817 26.000000
4.509580 7.020890 5.496953 13.000000
4.594343 7.177181 5.010210 8.000000
4.553341 7.181753 3.408836 4.000000
3.093790 8.146522 3.276152 33.000000
2.189313 5.961882 3.570302 19.000000
2.183390 5.999530 4.027360 13.000000
4.509291 7.083840 2.893522 21.000000
2.154928 5.990699 4.482476 11.000000
3.094498 8.118812 2.783250 50.000000
4.466808 7.035646 2.417602 55.000000
4.612707 7.157805 5.006771 11.000000
4.532178 7.008930 5.498656 8.000000
3.250612 5.110937 3.183144 28.000000
4.540981 7.115344 3.384421 6.000000
3.083012 8.064562 2.300611 42.000000
4.554735 6.996902 5.500361 13.000000
3.115603 8.100186 2.780284 27.000000
4.522958 7.057888 2.888811 24.000000
4.486563 7.019292 2.416856 41.000000
2.222917 6.048048 4.064303 8.000000
3.103187 8.044047 2.297624 48.000000
2.172734 5.983057 4.481909 11.000000
3.270973 5.108138 3.187755 18.000000
4.562019 7.100407 3.384126 8.000000
2.207669 5.955714 3.570791 13.000000
2.513253 6.689425 3.548866 15.000000
3.123682 8.149851 3.281361 29.000000
4.628592 7.134786 5.000827 7.000000
4.573068 6.978529 5.497161 6.000000
3.136636 8.081503 2.777317 41.000000
4.543835 7.042983 2.888560 22.000000
4.650164 7.120362 5.000898 7.000000
3.136209 8.109513 3.269273 33.000000
3.124003 8.025276 2.295136 40.000000
2.221860 5.938893 3.564994 20.000000
3.133869 8.145235 3.788828 5.000000
2.185805 5.963095 4.472217 16.000000
3.540086 5.317898 6.445828 4.000000
3.275079 5.080826 3.177289 24.000000
4.508919 7.006893 2.417466 46.000000
2.260612 6.090836 4.097554 19.000000
4.564148 7.027220 2.887990 26.000000
3.296890 5.080131 3.183271 29.000000
3.544402 5.289897 6.425418 8.000000
4.613276 7.084264 3.390110 7.000000
4.531782 6.995218 2.418346 48.000000
4.594627 6.964967 5.497775 6.000000
4.682811 7.122377 5.012498 19.000000
3.155804 8.058341 2.772856 20.000000
2.234366 5.917972 3.556780 23.000000
3.168199 8.117894 3.276558 19.000000
2.201458 5.949998 4.467659 20.000000
2.287422 6.104983 4.111808 8.000000
3.144016 8.004656 2.292148 58.000000
4.583346 7.009829 2.886785 23.000000
2.216746 5.936098 4.462531 16.000000
2.315897 6.122973 4.128702 19.000000
3.164289 7.984888 2.289412 43.000000
4.616138 6.951344 5.498390 5.000000
3.177017 8.040442 2.770190 24.000000
3.189643 8.100090 3.273466 18.000000
4.553539 6.981875 2.418686 41.000000
4.613994 7.038961 3.375563 10.000000
3.317728 5.077877 3.188341 25.000000
2.197391 5.960019 4.978569 12.000000
4.699492 7.100623 5.007557 11.000000
2.253903 5.914913 3.559205 15.000000
2.263622 5.887435 3.547122 23.000000
3.329580 5.062305 3.185187 14.000000
3.206007 8.070083 3.265533 30.000000
3.183353 7.962389 2.285925 51.000000
2.342919 6.136904 4.142959 17.000000
4.734883 7.152576 3.946263 5.000000
4.575251 6.968470 2.419029 42.000000
4.626708 6.921743 5.486476 10.000000
2.239210 5.940493 4.471094 15.000000
3.197414 8.020726 2.766928 33.000000
4.651464 7.048490 3.386965 5.000000
2.213658 5.948597 4.974902 10.000000
4.605649 6.997110 2.887494 18.000000
4.720949 7.085989 5.007632 18.000000
2.277814 5.871305 3.541811 22.000000
4.596927 6.954995 2.419371 32.000000
3.198470 8.022805 3.750826 4.000000
2.233937 5.947433 4.979805 12.000000
3.362963 5.078277 3.201681 23.000000
3.594865 5.260515 6.430508 6.000000
3.320071 8.372131 4.457589 5.000000
2.264462 5.951672 4.484792 13.000000
3.227971 8.053919 3.263135 22.000000
3.219923 8.006248 2.765458 34.000000
4.663918 7.020905 3.380825 7.000000
4.549101 6.731818 5.970192 6.000000
2.363066 6.133392 4.145607 7.000000
4.734533 7.059872 4.999686 16.000000
4.646183 6.905261 5.484914 8.000000
4.621006 6.974119 2.884060 24.000000
3.206414 7.949677 2.285197 52.000000
3.250249 8.038554 3.261082 23.000000
2.388987 6.143975 4.157753 8.000000
2.290736 5.965035 4.500202 9.000000
2.293933 5.859998 3.539402 16.000000
2.248696 5.932235 4.973079 9.000000
3.363196 5.045727 3.188018 14.000000
3.240550 7.987298 2.762493 39.000000
4.760314 7.051524 5.004271 15.000000
4.648576 6.969090 2.887955 12.000000
4.618579 6.941440 2.419711 43.000000
3.226068 7.928858 2.282210 70.000000
4.657977 6.877687 5.474631 10.000000
2.305316 5.837326 3.530223 29.000000
4.674434 6.856987 5.469800 10.000000
4.672391 6.958498 2.889621 12.000000
4.704320 6.988682 3.379507 9.000000
4.777189 7.030303 4.999834 23.000000
2.267496 5.927279 4.974923 14.000000
4.638007 6.924649 2.418969 23.000000
2.315561 5.974489 4.512760 10.000000
3.631413 5.244878 6.439077 5.000000
3.259965 7.965663 2.758635 44.000000
3.270266 8.017944 3.256955 24.000000
3.384028 5.043204 3.193090 18.000000
2.405639 6.131668 4.154597 3.000000
3.246372 7.909780 2.279728 61.000000
4.575760 6.683515 5.952720 5.000000
3.281141 7.948379 2.756272 29.000000
4.659008 6.910188 2.419043 46.000000
3.270767 7.900447 2.280005 46.000000
2.349169 6.005131 4.541292 7.000000
4.696582 6.844491 5.471510 6.000000
4.690245 6.939258 2.887783 18.000000
4.795457 7.011178 4.996902 10.000000
4.590785 6.661989 5.946335 8.000000
2.326012 5.837259 3.534585 23.000000
4.731851 6.983203 3.383969 9.000000
2.282128 5.912001 4.968199 11.000000
3.408432 5.045713 3.201362 18.000000
3.267315 8.162474 5.525108 4.000000
3.287608 7.991247 3.250408 27.000000
3.650482 5.238122 6.444775 4.000000
4.720486 6.937862 2.893278 4.000000
4.816148 6.995543 4.996480 19.000000
4.713862 6.825074 5.467772 21.000000
3.303377 7.933668 2.754805 38.000000
3.313324 7.984352 3.251819 22.000000
2.339264 5.819370 3.528309 24.000000
4.616507 6.655612 5.953454 6.000000
3.408869 5.013899 3.188158 21.000000
2.391135 6.055362 4.584657 16.000000
4.678319 6.893290 2.418304 57.000000
4.759396 6.977619 3.388431 15.000000
3.292073 7.883926 2.278277 47.000000
3.288409 8.143579 5.519329 4.000000
2.299978 5.904741 4.968207 8.000000
2.352439 5.801452 3.522033 26.000000
4.697583 6.876328 2.417563 50.000000
2.316914 5.895233 4.966381 7.000000
4.737400 6.814488 5.471116 9.000000
3.323292 7.913635 2.751545 39.000000
3.420442 4.998106 3.185006 22.000000
3.333088 7.963588 3.247693 25.000000
4.789104 6.974968 3.394354 7.000000
3.312551 7.865567 2.276047 67.000000
2.416706 6.065205 4.597789 16.000000
4.630949 6.633325 5.946481 10.000000
4.742071 6.923916 2.893670 11.000000
4.837804 6.981248 4.997056 21.000000
2.332602 5.882753 4.962106 10.000000
3.320431 8.082166 5.491936 6.000000
4.801110 6.947119 3.388216 14.000000
3.356134 7.950519 3.246682 20.000000
3.334116 7.849816 2.274569 74.000000
2.308807 5.903996 5.519158 13.000000
2.373792 5.802820 3.527365 24.000000
4.867097 7.021883 3.932385 5.000000
3.431952 4.982289 3.181855 24.000000
4.761407 6.804504 5.475006 13.000000
4.716790 6.859311 2.416822 49.000000
4.759792 6.904481 2.891832 10.000000
2.448402 6.089335 4.621761 6.000000
3.347706 7.904047 2.751871 26.000000
4.859922 6.967589 4.998137 12.000000
3.686750 5.188838 6.426591 5.000000
2.383720 5.777594 3.516737 25.000000
4.735920 6.842256 2.416085 55.000000
4.890464 7.009700 3.934114 4.000000
4.830242 6.943543 3.393778 16.000000
3.444425 4.967904 3.179619 16.000000
3.370147 7.890027 2.750706 44.000000
2.331532 5.908570 5.530256 6.000000
2.476408 6.104256 4.638888 9.000000
4.876937 6.946845 4.994206 14.000000
3.358338 7.840212 2.274850 48.000000
3.316880 7.833620 3.696420 8.000000
3.372315 7.921929 3.239446 29.000000
2.350664 5.876070 4.962729 12.000000
4.775777 6.882698 2.889041 9.000000
4.788810 6.799209 5.482714 11.000000
4.754435 6.824363 2.415078 51.000000
3.331714 7.802996 3.687025 23.000000
2.501947 6.113019 4.651452 12.000000
4.796635 6.867821 2.889119 7.000000
3.394056 7.906182 3.237401 27.000000
4.898940 6.933074 4.995290 17.000000
4.809827 6.784986 5.483339 16.000000
3.382140 7.829648 2.274881 56.000000
2.400502 5.768414 3.515783 28.000000
2.351100 5.905363 5.534181 6.000000
4.854521 6.933043 3.396052 17.000000
2.366249 5.863504 4.958456 6.000000
3.697223 5.137835 6.392129 13.000000
3.451645 4.946270 3.172813 28.000000
3.393311 7.877686 2.750140 41.000000
4.917358 6.914323 4.992863 17.000000
2.393562 5.878542 4.977443 12.000000
2.422888 5.772006 3.522568 18.000000
3.418430 7.896365 3.237777 23.000000
2.368629 5.897197 5.533539 8.000000
3.404338 7.815475 2.273908 57.000000
4.874987 6.917163 3.395764 18.000000
4.815248 6.849791 2.887921 14.000000
3.472868 4.944076 3.178347 19.000000
3.698268 5.106955 6.368195 7.000000
3.414887 7.861786 2.748377 34.000000
4.830324 6.770010 5.483417 8.000000
3.365839 7.816045 3.698050 9.000000
4.775703 6.810319 2.415426 49.000000
3.376400 8.010921 5.465106 4.000000
4.844327 6.746184 5.476409 12.000000
4.824908 6.819423 2.881621 7.000000
3.394850 7.987090 5.456162 3.000000
3.437976 7.849306 2.747810 39.000000
3.484677 4.928862 3.175654 20.000000
2.433991 5.749899 3.513876 20.000000
3.711924 5.093116 6.365427 5.000000
3.424489 7.796827 2.271681 46.000000
3.441240 7.883049 3.236769 18.000000
4.882836 6.883890 3.387069 12.000000
2.422240 5.896374 4.998881 12.000000
4.934181 6.893427 4.988931 13.000000
3.394060 7.815530 3.702792 11.000000
4.796934 6.796206 2.415773 60.000000
4.953460 6.963080 3.933942 5.000000
2.387613 5.892468 5.536160 9.000000
3.458941 7.858569 3.231266 24.000000
3.460212 7.835027 2.746648 45.000000
2.408066 5.891164 5.542044 7.000000
4.596255 6.309183 6.385228 6.000000
4.842227 6.799798 2.879788 6.000000
4.955524 6.878773 4.989516 20.000000
3.498523 4.916497 3.174791 20.000000
4.817544 6.781261 2.415852 62.000000
2.451390 5.742170 3.513891 19.000000
3.715698 5.066242 6.346433 6.000000
3.431381 7.835035 3.716962 19.000000
4.976148 6.949871 3.935261 7.000000
4.754236 6.551075 5.951635 8.000000
4.860707 6.725718 5.472130 9.000000
4.908623 6.875453 3.390440 15.000000
3.445747 7.780778 2.270209 51.000000
2.510324 6.001254 5.100525 13.000000
4.925584 6.854925 3.387964 11.000000
4.976304 6.863362 4.989600 23.000000
4.853865 6.772490 2.874767 7.000000
4.837537 6.765480 2.415662 53.000000
3.505456 4.894795 3.167987 22.000000
3.716768 5.036008 6.323205 6.000000
3.482786 7.821556 2.745786 40.000000
3.479644 7.840880 3.228532 25.000000
3.467746 7.766434 2.269240 48.000000
3.440360 7.959497 5.452004 5.000000
3.466559 7.849366 3.728778 15.000000
2.425830 5.883526 5.542057 4.000000
2.474862 5.747961 3.522129 15.000000
4.875502 6.703199 5.466218 11.000000
4.868210 6.748976 2.871339 8.000000
3.486447 7.744994 2.266263 53.000000
4.858064 6.750402 2.415741 51.000000
3.490361 7.838475 3.728811 12.000000
3.502523 7.801950 2.742831 31.000000
3.500683 7.823984 3.226142 27.000000
4.923114 6.808151 3.372689 7.000000
2.528132 5.992574 5.099928 6.000000
2.438451 5.864014 5.530982 7.000000
3.518134 4.880941 3.166210 22.000000
4.996019 6.846489 4.988680 18.000000
3.727603 5.018754 6.316206 4.000000
2.485397 5.724958 3.512955 26.000000
4.895247 6.687353 5.465753 9.000000
3.346589 7.763251 5.936874 7.000000
3.468279 7.957217 5.457841 6.000000
2.454628 5.852809 5.527735 6.000000
4.876828 6.732939 2.415007 50.000000
3.516452 7.832518 3.731201 16.000000
2.562270 6.020703 5.130552 9.000000
3.525968 4.860644 3.160319 19.000000
3.505053 7.723512 2.263287 55.000000
3.485582 7.813207 4.240023 10.000000
3.494819 7.951746 5.461567 4.000000
3.523389 7.784889 2.740773 47.000000
3.522053 7.807880 3.224100 28.000000
2.500910 5.713090 3.510553 16.000000
4.913935 6.670107 5.464199 13.000000
3.526442 7.708122 2.262069 54.000000
4.904548 6.712505 2.868949 6.000000
3.521698 7.946962 5.465824 4.000000
3.511142 7.806341 4.242251 14.000000
3.536918 4.844612 3.157172 16.000000
4.927997 6.646802 5.457742 10.000000
3.542948 7.790874 3.221713 23.000000
2.514538 5.697207 3.505733 18.000000
4.896674 6.716976 2.414817 60.000000
2.592073 6.038575 5.152607 13.000000
3.544172 7.767777 2.738717 37.000000
2.472284 5.845028 5.527750 8.000000
2.614854 6.040464 5.161196 9.000000
3.544668 7.933602 5.464276 7.000000
4.917043 6.701727 2.414900 51.000000
4.421345 6.014194 3.005070 15.000000
3.544578 4.824307 3.151283 23.000000
2.495153 5.848965 5.538855 5.000000
3.549844 7.697046 2.262106 46.000000
3.576423 7.836998 3.743842 8.000000
3.534785 7.795322 4.242287 12.000000
4.817148 6.430231 5.909757 6.000000
3.566107 7.753201 2.737559 52.000000
3.562165 7.770422 3.217943 23.000000
2.529196 5.683676 3.502366 23.000000
4.917485 6.687388 2.864886 9.000000
4.949586 6.633475 5.459461 15.000000
3.569453 7.678041 2.259885 45.000000
4.965020 6.612094 5.454640 16.000000
3.577610 7.941746 5.477507 5.000000
3.559162 4.813192 3.151336 19.000000
4.937370 6.686413 2.414983 50.000000
3.754931 4.930035 6.263514 6.000000
3.587992 7.738561 2.736401 38.000000
2.509693 5.834146 5.532348 12.000000
4.934323 6.667540 2.863056 8.000000
3.570274 7.809432 4.255921 10.000000
2.546767 5.676450 3.502867 11.000000
3.588154 7.764323 3.220057 14.000000
4.464867 6.033771 3.021598 10.000000
3.598605 7.822452 3.742308 10.000000
4.870294 6.418732 5.926950 7.000000
3.481580 7.748737 5.966701 6.000000
3.605627 7.740370 3.214902 21.000000
3.593729 7.913601 5.465930 4.000000
3.609420 7.722994 2.734943 36.000000
4.957658 6.671028 2.415065 56.000000
3.567220 4.793561 3.145904 20.000000
4.980894 6.591336 5.450363 11.000000
3.591938 7.665083 2.259420 43.000000
4.469031 6.001338 3.012528 13.000000
4.957412 6.655937 2.864733 10.000000
2.557605 5.654918 3.494663 25.000000
3.593944 7.798226 4.255957 6.000000
2.499314 5.854353 6.154264 6.000000
2.538551 5.851054 5.555849 11.000000
4.495713 5.998466 3.018087 23.000000
2.572466 5.642068 3.491781 18.000000
4.980473 6.644260 2.866411 10.000000
3.615139 7.896956 5.462272 4.000000
4.977895 6.655586 2.415149 50.000000
3.785414 4.907615 6.265043 7.000000
3.613525 7.650321 2.258454 46.000000
3.511961 7.752697 5.978146 7.000000
3.629114 7.703936 2.732292 28.000000
3.627068 7.724831 3.213210 22.000000
2.575395 5.885081 5.595658 15.000000
3.582256 4.783079 3.146415 26.000000
3.638137 7.829913 4.279243 10.000000
4.998075 6.640092 2.415235 61.000000
4.525257 5.999177 3.025477 20.000000
3.592892 4.766937 3.143270 19.000000
3.636324 7.638113 2.258244 58.000000
3.646791 7.705865 3.210135 24.000000
3.666143 7.827412 4.284108 12.000000
2.588779 5.632340 3.490833 12.000000
4.990188 6.615251 2.860756 8.000000
3.632457 7.871820 5.452810 5.000000
3.648296 7.683979 2.729344 23.000000
3.530840 7.732028 5.970766 6.000000
3.656082 7.619760 2.256278 42.000000
3.700065 7.836935 4.295554 11.000000
4.559419 6.005640 3.035794 16.000000
2.598970 5.609955 3.482147 21.000000
3.650025 7.847416 5.443877 6.000000
3.670346 7.669967 2.728488 44.000000
3.679673 7.713796 3.218136 14.000000
3.608943 4.757780 3.144696 21.000000
2.539859 5.803495 6.125980 6.000000
2.645610 5.943685 5.666801 9.000000
4.933753 6.380093 5.933663 8.000000
2.567930 5.818437 6.150187 9.000000
3.699750 7.695525 3.215407 15.000000
3.690237 7.651611 2.726137 34.000000
2.678305 5.966907 5.696829 10.000000
4.589085 6.006076 3.043185 16.000000
3.677073 7.603951 2.255063 47.000000
3.623878 4.747164 3.145209 24.000000
2.615186 5.600147 3.481200 30.000000
3.659373 7.806147 5.423330 4.000000
3.730641 7.699032 3.221678 8.000000
2.710198 5.987928 5.724902 7.000000
3.699739 7.591543 2.254853 42.000000
3.769014 7.857174 4.319324 5.000000
3.745704 7.764328 3.747651 4.000000
3.588036 7.671966 5.950336 6.000000
3.637128 4.734409 3.144351 26.000000
3.710907 7.634911 2.724385 40.000000
2.629057 5.585577 3.477352 21.000000
3.657359 7.741979 5.386948 7.000000
4.625706 6.015161 3.054965 16.000000
3.720162 7.574759 2.253391 52.000000
4.641026 5.997101 3.053216 12.000000
2.644402 5.574118 3.475439 24.000000
3.753562 7.686503 3.221376 7.000000
3.731492 7.618166 2.722635 39.000000
2.600832 5.797556 6.145388 12.000000
2.732803 5.988956 5.734057 6.000000
3.674785 7.718322 5.378543 8.000000
3.647001 4.717452 3.140750 17.000000
3.607646 7.594828 5.908194 8.000000
3.682700 7.675592 5.356944 9.000000
4.057812 5.092496 5.931076 5.000000
2.740072 5.957766 5.712553 9.000000
3.662926 4.708111 3.142179 18.000000
2.664776 5.572802 3.479816 21.000000
4.681811 6.011021 3.067562 7.000000
3.764158 7.684128 3.720634 7.000000
3.776445 7.673904 3.221075 9.000000
3.740961 7.558783 2.252181 33.000000
3.749418 7.596261 2.719093 33.000000
3.763036 7.545326 2.251722 33.000000
3.703655 7.659492 5.353817 11.000000
3.679393 4.699402 3.144065 28.000000
3.617532 7.557007 5.887691 11.000000
3.781626 7.660852 3.715178 6.000000
2.767264 5.968231 5.730842 4.000000
3.769435 7.578557 2.717043 34.000000
3.795037 7.652875 3.217310 8.000000
4.065091 5.070062 5.919789 4.000000
2.639468 5.788892 6.153723 16.000000
2.678504 5.558110 3.475969 17.000000
3.693040 4.687182 3.143666 20.000000
3.794631 7.570977 2.718582 19.000000
3.783734 7.529223 2.250511 45.000000
2.694933 5.548853 3.475509 23.000000
2.657232 5.781203 6.154436 15.000000
3.628689 7.522136 5.869473 7.000000
4.862989 6.034293 6.345672 7.000000
3.724931 7.644092 5.351219 11.000000
3.708892 4.677686 3.145096 23.000000
2.705364 5.527854 3.467793 21.000000
2.678415 5.780621 6.162751 12.000000
4.073628 5.018345 5.889204 5.000000
3.833094 7.646894 3.719982 5.000000
3.812762 7.549774 2.715340 28.000000
3.805249 7.514791 2.249805 46.000000
3.836681 7.619857 3.213593 7.000000
2.702463 5.785813 6.177289 5.000000
4.082499 4.998223 5.880590 9.000000
3.833897 7.534449 2.714192 30.000000
3.860080 7.642238 3.723565 7.000000
3.850237 7.589545 3.206026 8.000000
3.827161 7.501154 2.249350 47.000000
2.718091 5.511515 3.462981 22.000000
3.776522 7.631293 5.358699 9.000000
3.717945 4.659891 3.141040 11.000000
2.983802 5.989645 3.332894 4.000000
3.745065 4.664011 3.151617 18.000000
3.028492 6.031253 3.361004 11.000000
3.881971 7.627705 3.722433 10.000000
4.102337 4.991167 5.887337 9.000000
4.905369 5.974463 6.330850 6.000000
3.661427 7.418284 5.815391 12.000000
2.737067 5.812328 6.214634 7.000000
3.811243 7.642139 5.374580 10.000000
2.731958 5.497477 3.459620 10.000000
3.853206 7.515682 2.711847 39.000000
3.850849 7.490870 2.249899 39.000000
2.740106 5.472539 3.449486 24.000000
3.758025 4.650916 3.150762 28.000000
3.037164 6.003403 3.350944 13.000000
3.878258 7.507823 2.713389 30.000000
4.099042 4.956809 5.862026 12.000000
3.678239 7.395851 5.806874 12.000000
3.844506 7.649825 5.388350 8.000000
4.943953 5.983569 6.356701 8.000000
3.871325 7.474529 2.248691 49.000000
3.772081 4.639152 3.150823 24.000000
3.871177 7.644575 5.393148 4.000000
2.751786 5.454579 3.443707 12.000000
3.891734 7.458137 2.247485 57.000000
3.696074 7.375575 5.800070 10.000000
3.929476 7.605762 3.723708 6.000000
2.794280 5.839648 6.262374 8.000000
4.103312 4.931571 5.847402 9.000000
4.962479 5.968791 6.357418 11.000000
3.064157 6.010520 3.360190 21.000000
3.896991 7.488104 2.710747 40.000000
3.899416 7.642246 5.400061 7.000000
3.959457 7.606444 3.730046 4.000000
3.918345 7.473387 2.709901 46.000000
4.981458 5.954554 6.358765 12.000000
4.106005 4.904666 5.830775 9.000000
3.726307 7.379308 5.812099 4.000000
2.830321 5.867667 6.301798 4.000000
3.912988 7.443399 2.246783 53.000000
3.091635 6.018325 3.369877 22.000000
3.791253 4.633472 3.155001 15.000000
2.762558 5.435054 3.436961 19.000000
3.933739 7.427743 2.245829 56.000000
4.999393 5.939068 6.358855 11.000000
3.126414 6.039478 3.387023 30.000000
3.983387 7.595674 3.730882 7.000000
3.920751 7.446873 3.171995 8.000000
3.938750 7.456925 2.708456 43.000000
3.751659 7.373463 5.816709 8.000000
2.775301 5.419373 3.432634 22.000000
3.803531 4.619572 3.153691 21.000000
2.848002 5.858746 6.301825 7.000000
3.942444 7.432949 3.171353 10.000000
3.818071 4.608343 3.154210 28.000000
2.791288 5.409832 3.432178 17.000000
3.619688 7.143099 6.270506 6.000000
3.786979 7.386413 5.836156 5.000000
3.154098 6.047030 3.396710 39.000000
3.960469 7.442917 2.707908 40.000000
2.863695 5.845904 6.297706 6.000000
3.954438 7.412027 2.244875 50.000000
4.017384 7.603414 3.740756 7.000000
3.972732 7.392021 2.242668 54.000000
4.102088 4.811228 5.765528 8.000000
3.978912 7.422998 2.705269 36.000000
3.835472 4.600446 3.157017 21.000000
2.800169 5.387157 3.423497 26.000000
3.813928 7.383265 5.843051 5.000000
3.656717 7.161152 6.296266 6.000000
4.040871 7.591655 3.741201 7.000000
3.964536 7.419787 3.171058 5.000000
3.144938 5.986581 3.368664 22.000000
3.997261 7.403041 2.702632 38.000000
3.670925 7.135736 6.284065 13.000000
3.981562 7.574360 5.387062 6.000000
3.520411 6.931896 6.763947 3.000000
3.850532 4.589798 3.157996 20.000000
3.990932 7.371978 2.240463 61.000000
4.100805 4.780567 5.744224 5.000000
3.148814 5.950679 3.354220 15.000000
3.984304 7.402462 3.169034 6.000000
2.817717 5.380623 3.424978 14.000000
3.848634 7.394504 5.861361 6.000000
3.873708 7.387526 5.865405 7.000000
3.164662 5.936836 3.352062 21.000000
4.011895 7.356954 2.239763 54.000000
4.006752 7.389996 3.169087 12.000000
4.102342 4.753295 5.726928 7.000000
2.830630 5.365589 3.421137 17.000000
3.696565 7.131917 6.290846 6.000000
3.534601 6.908133 6.751593 4.000000
3.997975 7.549978 5.378667 5.000000
4.031434 4.783152 2.904619 5.000000
3.864401 4.577754 3.158060 15.000000
4.017863 7.387202 2.701490 47.000000
3.169113 5.902526 3.338496 10.000000
4.107537 7.549524 3.739400 6.000000
4.015102 7.527052 5.371327 10.000000
3.893297 7.370358 5.861459 6.000000
4.037946 7.370470 2.700047 58.000000
3.879992 4.567672 3.159497 22.000000
4.101280 4.723276 5.706292 8.000000
2.850674 5.363546 3.425522 12.000000
4.053685 4.779479 2.910044 12.000000
3.549756 6.886352 6.741196 6.000000
4.032812 7.341866 2.239063 43.000000
4.058898 7.355348 2.699206 46.000000
3.569454 6.873230 6.739282 14.000000
4.036224 7.511531 5.369269 10.000000
4.068739 4.767498 2.910526 12.000000
3.879699 4.539512 3.148584 10.000000
4.040752 7.304002 2.231587 74.000000
4.037233 7.339538 3.158460 5.000000
4.115977 4.711035 5.707030 8.000000
3.769725 7.164326 6.339923 6.000000
2.860946 5.343843 3.418778 26.000000
3.189179 5.896477 3.340727 10.000000
2.876683 5.334053 3.418326 24.000000
3.598455 6.877394 6.754333 6.000000
3.901663 4.536705 3.155053 16.000000
4.079794 7.340169 2.698365 50.000000
4.051509 7.485560 5.359820 12.000000
4.068696 7.301443 2.234655 49.000000
4.083758 4.755471 2.911008 19.000000
4.050670 7.311422 3.151936 10.000000
4.119239 4.657775 5.673774 5.000000
2.891956 5.323456 3.417390 21.000000
4.061639 7.279225 3.143682 5.000000
4.069991 7.465495 5.354596 7.000000
4.096927 4.741354 2.910254 13.000000
4.102060 7.327414 2.698422 48.000000
3.617384 6.862801 6.751116 6.000000
3.923645 4.533808 3.161524 25.000000
4.090858 7.288720 2.234712 47.000000
3.957999 7.330051 5.858761 7.000000
4.165110 7.491638 3.730140 9.000000
2.907632 5.313571 3.416938 21.000000
3.644274 6.862777 6.762252 8.000000
4.120371 4.738746 2.916507 19.000000
4.078560 7.257583 3.139928 6.000000
4.110077 7.270899 2.233262 40.000000
4.094661 7.456475 5.357290 6.000000
4.187820 7.478620 3.730198 7.000000
4.122865 7.312107 2.697581 52.000000
3.983361 7.323413 5.863379 9.000000
3.931413 4.514914 3.157016 16.000000
4.133620 7.260550 2.234073 40.000000
4.159298 4.645173 5.689950 4.000000
4.110000 7.261051 3.146911 11.000000
2.921970 5.301363 3.415035 22.000000
4.118052 7.445160 5.358402 10.000000
3.939102 4.496016 3.152508 14.000000
4.146016 7.300864 2.698236 43.000000
4.134702 4.725875 2.916578 19.000000
4.133815 7.420508 5.350012 11.000000
4.220604 7.430937 3.719706 6.000000
4.148379 4.712290 2.916238 23.000000
4.020693 7.286310 5.853785 10.000000
3.714319 6.891585 6.813240 9.000000
3.961643 4.493587 3.159438 21.000000
4.167680 7.287084 2.697997 41.000000
4.170731 4.629473 5.686683 6.000000
4.154184 7.245127 2.233379 43.000000
4.124430 7.235252 3.141428 10.000000
2.939751 5.295186 3.417005 17.000000
3.972818 4.478582 3.157676 17.000000
4.190269 7.274885 2.698357 48.000000
2.956643 5.287435 3.418006 25.000000
4.142074 7.215093 3.138371 5.000000
4.175679 7.231313 2.233188 49.000000
4.194274 4.626819 5.699450 12.000000
4.168143 4.705407 2.920021 26.000000
4.267527 7.500000 4.282347 8.000000
4.155822 7.406867 5.349544 4.000000
3.983945 4.463542 3.155915 17.000000
4.182374 4.692388 2.920094 21.000000
2.970434 5.274336 3.415622 28.000000
3.783362 6.917150 6.861623 9.000000
4.211372 7.260146 2.697818 54.000000
4.175245 7.388745 5.345904 6.000000
4.195655 7.214931 2.232243 53.000000
4.198415 4.681339 2.921404 30.000000
4.231443 7.243710 2.696681 37.000000
3.998035 4.451743 3.156441 15.000000
4.199736 7.379374 5.348603 8.000000
3.816937 6.927731 6.883858 11.000000
4.262179 7.347722 3.698271 8.000000
4.220057 7.205963 2.233558 46.000000
4.213891 4.591948 5.688910 6.000000
2.986392 5.264975 3.415657 17.000000
4.191578 7.198792 3.142645 8.000000
4.251438 7.227229 2.695549 44.000000
4.316683 7.428178 4.264538 10.000000
4.011478 4.439256 3.156511 13.000000
4.215661 4.671581 2.923540 26.000000
4.286325 7.337575 3.699907 7.000000
4.240420 7.190298 2.232868 57.000000
3.004096 5.258582 3.417628 15.000000
4.112244 7.242052 5.859149 8.000000
4.211945 7.183291 3.141668 15.000000
4.134120 7.229215 5.859208 6.000000
4.222950 4.651095 2.919080 16.000000
4.235179 7.172544 3.142770 18.000000
3.015069 5.240854 3.412341 18.000000
4.261741 7.176225 2.232680 47.000000
4.241957 4.566176 5.689729 7.000000
4.033995 4.436470 3.163444 18.000000
4.272866 7.213136 2.695312 51.000000
4.242145 7.349441 5.346087 14.000000
4.281507 7.159607 2.231738 44.000000
4.262635 7.333282 5.344035 16.000000
4.232653 4.633259 2.916269 22.000000
4.235076 4.531475 5.663080 6.000000
4.255467 7.156909 3.141792 17.000000
3.025518 5.222354 3.406570 25.000000
4.322161 7.296597 3.692959 6.000000
4.048007 4.424513 3.163972 23.000000
4.291768 7.194903 2.693580 49.000000
4.303757 7.147052 2.232052 49.000000
3.900289 6.879625 6.884068 5.000000
4.252315 4.522016 5.667833 4.000000
4.237909 4.610769 2.910572 19.000000
4.310600 7.176621 2.691848 52.000000
4.284048 7.154806 3.146703 5.000000
4.284378 7.319249 5.343569 17.000000
3.042677 5.215071 3.408059 22.000000
4.052819 4.402822 3.157637 11.000000
4.478485 4.781200 5.385522 4.000000
4.322377 7.128686 2.230611 47.000000
4.330854 7.160735 2.691017 42.000000
3.061631 5.210727 3.411485 12.000000
4.255608 4.601514 2.913122 32.000000
4.069792 4.394034 3.160455 20.000000
4.301784 7.135053 3.143998 5.000000
4.242052 4.484215 5.637176 7.000000
4.308695 7.309522 5.346273 4.000000
4.369711 7.275030 3.695840 9.000000
4.253156 4.571109 2.902478 19.000000
4.386905 7.253583 3.691976 13.000000
4.313000 7.104902 3.136789 13.000000
4.352069 7.146407 2.690784 49.000000
4.323284 7.283752 5.337361 6.000000
3.068242 5.186171 3.401844 27.000000
4.268003 4.483766 5.653288 11.000000
4.086752 4.385179 3.163272 21.000000
4.341958 7.111909 2.229673 51.000000
4.503411 4.749367 5.381287 8.000000
3.082088 5.173536 3.399947 23.000000
4.403038 7.230536 3.687326 7.000000
4.373240 7.132014 2.690552 40.000000
4.361997 7.095896 2.228986 37.000000
4.343531 7.267371 5.335314 6.000000
4.264448 4.555211 2.900905 28.000000
4.094443 4.366656 3.159226 14.000000
4.354535 7.075529 3.135882 9.000000
4.363274 7.250211 5.332739 12.000000
4.288104 4.450244 5.644757 8.000000
4.536854 4.726267 5.387110 11.000000
4.639622 4.776154 6.739265 4.000000
4.381977 7.079826 2.228299 44.000000
3.100042 5.167554 3.402407 24.000000
4.271249 4.534702 2.896446 29.000000
4.392322 7.114333 2.689123 48.000000
4.475343 7.286572 4.246635 5.000000
3.109626 5.148163 3.396157 28.000000
4.279866 4.516163 2.893224 21.000000
4.647931 4.755727 6.730880 5.000000
4.377477 7.064325 3.136991 7.000000
4.381141 7.230122 5.328055 6.000000
4.415424 7.103050 2.690091 42.000000
4.274177 4.409466 5.610090 5.000000
4.448266 7.205339 3.688644 6.000000
4.402928 7.065344 2.228118 37.000000
4.528462 4.661080 5.345155 5.000000
4.388258 7.034082 3.129786 11.000000
4.434891 7.086072 2.688966 47.000000
4.390370 7.196314 5.313338 8.000000
4.423307 7.049986 2.227687 34.000000
4.668219 4.747267 6.739441 5.000000
4.474780 7.236959 4.226076 7.000000
3.123318 5.135427 3.394262 19.000000
4.289046 4.498266 2.890416 24.000000
4.678430 4.728771 6.733879 5.000000
3.133222 5.116736 3.388495 22.000000
4.488883 7.172894 3.686428 7.000000
4.454312 7.069030 2.687839 44.000000
4.412577 7.183344 5.313934 10.000000
4.441545 7.031309 2.226249 54.000000
4.529273 4.633800 5.330148 7.000000
4.302639 4.484888 2.890494 22.000000
4.491856 7.215434 4.221756 7.000000
4.405008 7.013293 3.126737 10.000000
4.474194 7.052734 2.687011 43.000000
4.429841 7.005059 3.129231 12.000000
3.151050 5.110570 3.390958 20.000000
4.512110 7.161213 3.687677 8.000000
4.537139 4.613674 5.323316 5.000000
4.316834 4.472114 2.890984 25.000000
4.462357 7.016638 2.226068 40.000000
4.426565 7.157395 5.305023 9.000000
3.160819 5.091834 3.385192 22.000000
4.335488 4.463820 2.894363 30.000000
4.316356 6.995537 5.787412 6.000000
4.534952 4.583725 5.305166 11.000000
4.532289 7.144841 3.686571 5.000000
4.484171 7.003534 2.226392 41.000000
4.444991 7.138593 5.301397 12.000000
4.496097 7.039584 2.687383 42.000000
4.506474 6.991175 2.226969 46.000000
4.463336 7.119749 5.297773 10.000000
4.523737 4.545127 5.276956 6.000000
4.339939 4.441308 2.888669 20.000000
4.514279 7.020794 2.685662 38.000000
3.174778 5.079700 3.383784 23.000000
4.486654 6.953262 3.124943 7.000000
4.361121 4.435472 2.893698 27.000000
3.189180 5.068255 3.382859 15.000000
4.532405 7.001948 2.683940 63.000000
4.527151 6.976315 2.226790 46.000000
4.577027 7.118837 3.687900 9.000000
4.491311 7.115823 5.305238 25.000000
4.510043 7.097556 5.302140 15.000000
4.529244 4.495828 5.252600 6.000000
4.603166 7.111467 3.691512 6.000000
4.553643 6.987814 2.684012 52.000000
4.549401 6.963804 2.227365 42.000000
4.764243 4.670304 6.755510 6.000000
4.509291 6.941613 3.126055 11.000000
3.204985 5.058963 3.383387 22.000000
4.376471 4.423792 2.895015 33.000000
4.571064 6.950428 2.227692 36.000000
4.385928 4.406331 2.892622 26.000000
3.213045 5.037941 3.376171 25.000000
4.525621 6.920547 3.123010 11.000000
4.394778 6.932384 5.780266 7.000000
4.779783 4.656965 6.757720 6.000000
4.583874 6.987087 2.689175 22.000000
4.532114 4.471491 5.240738 6.000000
4.100185 6.611569 6.777813 6.000000
4.531951 7.084220 5.302742 14.000000
3.396760 5.284621 3.139467 5.000000
4.533189 4.445570 5.226989 6.000000
4.545005 6.904118 3.122047 6.000000
4.554748 7.072239 5.304402 14.000000
3.411241 5.271730 3.138199 8.000000
4.063221 6.214956 3.244572 5.000000
4.392706 4.386317 2.888578 20.000000
3.225846 5.024209 3.373796 18.000000
4.598096 6.962537 2.685362 31.000000
4.793224 4.641633 6.757106 5.000000
4.591052 6.934587 2.227267 50.000000
4.414796 6.917322 5.779197 5.000000
4.407265 4.373896 2.889485 32.000000
3.242977 5.016987 3.375778 26.000000
4.608269 6.914683 2.225584 44.000000
3.431701 5.267741 3.142201 12.000000
3.988302 6.063645 3.173068 13.000000
4.807656 4.627224 6.757904 9.000000
4.562235 6.884522 3.119696 7.000000
4.618131 6.946633 2.684840 37.000000
4.436131 6.904253 5.779839 6.000000
4.581284 7.065835 5.310287 13.000000
4.544619 4.402894 5.210180 5.000000
4.594147 7.038860 5.300854 11.000000
3.259123 5.008253 3.376792 26.000000
4.456077 6.889061 5.778768 6.000000
3.447136 5.256232 3.141812 14.000000
4.627608 6.897925 2.224905 39.000000
4.638120 6.930665 2.684317 41.000000
4.816877 4.607933 6.751639 11.000000
4.406690 4.346900 2.880903 18.000000
4.582043 6.868752 3.119077 17.000000
4.004078 6.047378 3.171163 18.000000
4.822392 4.585257 6.740432 6.000000
4.407308 4.321210 2.873147 23.000000
4.600729 6.851383 3.117767 13.000000
3.272789 4.995846 3.375386 22.000000
4.613047 7.021033 5.298288 12.000000
4.026545 6.040936 3.174373 22.000000
4.645782 6.879524 2.223725 43.000000
4.658592 6.915429 2.684095 29.000000
3.460507 5.241711 3.139667 17.000000
4.468217 6.862206 5.767992 7.000000
4.355165 6.712057 6.276177 5.000000
4.546032 4.351232 5.182681 7.000000
4.619874 6.834746 3.116806 25.000000
4.676825 6.897008 2.682678 47.000000
4.829888 4.564520 6.732051 8.000000
4.664981 6.862676 2.223051 53.000000
4.635200 7.008085 5.299423 11.000000
3.289361 4.987746 3.376886 24.000000
4.409127 4.296821 2.866216 19.000000
4.042736 6.025337 3.172865 22.000000
3.473305 5.226423 3.137085 21.000000
3.488601 5.214798 3.136698 18.000000
3.305919 4.979587 3.378386 34.000000
4.682464 6.843390 2.221622 55.000000
4.513730 6.840439 5.773280 5.000000
4.699917 6.885572 2.683955 31.000000
4.057304 6.007425 3.170177 21.000000
4.652543 6.988047 5.295275 19.000000
4.404220 4.266202 2.855158 17.000000
4.643260 6.824205 3.118617 16.000000
4.561388 4.339205 5.185283 9.000000
4.843567 4.549518 6.732145 7.000000
4.569289 4.320263 5.179708 5.000000
4.704905 6.831171 2.222454 53.000000
4.847795 4.525879 6.719525 7.000000
4.667900 6.965158 5.289012 17.000000
4.666637 6.813577 3.120427 18.000000
4.085502 6.009069 3.177714 15.000000
3.504893 5.204598 3.137189 26.000000
4.720800 6.870929 2.684033 41.000000
4.524689 6.812126 5.761363 11.000000
4.409801 4.245617 2.850702 23.000000
3.321471 4.969928 3.378919 22.000000
4.575969 4.300267 5.172877 13.000000
4.680250 6.789080 3.115999 19.000000
3.336993 4.960224 3.379452 21.000000
3.520636 5.193613 3.137242 15.000000
4.115857 6.013608 3.186826 15.000000
4.851396 4.501785 6.706199 7.000000
4.408636 4.218829 2.842119 23.000000
4.726189 6.817304 2.222785 41.000000
4.739428 6.853111 2.682915 38.000000
4.692325 6.955519 5.292788 18.000000
4.428721 4.211912 2.846741 19.000000
4.746860 6.802594 2.222867 59.000000
4.138834 6.007519 3.190433 15.000000
4.760194 6.838362 2.682998 35.000000
4.600086 4.380817 2.578543 20.000000
4.699723 6.772984 3.115387 16.000000
4.591186 4.288132 5.175480 8.000000
4.713813 6.941620 5.293396 16.000000
