# .PCD v0.7 - Point Cloud Data file format
VERSION 0.7
FIELDS x y z intensity
SIZE 4 4 4 4
TYPE F F F F
COUNT 1 1 1 1
WIDTH 58
HEIGHT 1
VIEWPOINT 0 0 0 1 0 0 0
POINTS 58
DATA ascii
-2.840636 9.133267 -0.562844 16.000000
-2.793955 9.005406 -0.094800 17.000000
-2.773023 9.035583 -0.095433 16.000000
-2.817883 9.158749 -0.564268 20.000000
-2.751355 9.063809 -0.096025 20.000000
-2.770533 9.100900 -0.559820 10.000000
-2.751373 9.138667 -0.562116 11.000000
-2.719083 9.131321 -0.561242 14.000000
-2.700433 9.095119 -0.096728 15.000000
-2.692044 9.142095 -0.561650 27.000000
-2.672975 9.103922 -0.096952 15.000000
-2.644396 9.108802 -0.097098 22.000000
-2.645555 9.083630 -0.557193 24.000000
-2.607437 9.053814 -0.554757 18.000000
-2.614476 9.108776 -0.097149 21.000000
-2.584324 9.107682 -0.097182 26.000000
-2.590083 9.098905 -0.557592 24.000000
-2.545101 9.072697 -0.096563 8.000000
-2.571182 9.139153 -0.560091 38.000000
-2.521395 9.064674 -0.554542 12.000000
-2.520515 9.091667 -0.096984 11.000000
-2.497545 9.086449 -0.555751 20.000000
-2.496084 9.111544 -0.097421 19.000000
-2.470810 9.128445 -0.097804 18.000000
-2.485172 9.152565 -0.560073 34.000000
-2.457243 9.159752 -0.560269 16.000000
-2.435193 9.190061 -0.562089 13.000000
-2.418554 9.242583 -0.565464 11.000000
-2.395707 9.183588 -0.099040 17.000000
-2.375841 9.223514 -0.099869 19.000000
-2.422010 9.377403 -0.574596 7.000000
-2.412350 9.461929 -0.580211 15.000000
-2.355048 9.260485 -0.100643 15.000000
-2.372719 9.424276 -0.577291 10.000000
-2.339192 9.318800 -0.101830 27.000000
-2.315604 9.345984 -0.102415 24.000000
-2.303718 9.423731 -0.103977 23.000000
-2.283747 9.468360 -0.104904 14.000000
-2.257975 9.488585 -0.105359 19.000000
-2.243029 9.557527 -0.106754 23.000000
-2.205885 9.527864 -0.106245 57.000000
-2.193646 9.611376 -0.107926 16.000000
-2.161470 9.749102 -0.110723 8.000000
-2.140287 9.796422 -0.111706 15.000000
-2.949096 9.006739 -0.310609 28.000000
-2.931458 9.046824 -0.312168 13.000000
-2.915370 9.092617 -0.313973 18.000000
-2.895231 9.125971 -0.315245 16.000000
-2.875791 9.162149 -0.316642 8.000000
-2.853286 9.188725 -0.317626 17.000000
-2.827511 9.204719 -0.318154 16.000000
-2.799139 9.212008 -0.318311 24.000000
-2.768259 9.210566 -0.318097 11.000000
-2.735484 9.202297 -0.317593 12.000000
-2.697604 9.175657 -0.316300 21.000000
-2.666639 9.172928 -0.316038 16.000000
-2.618428 9.107487 -0.313090 27.000000
-2.020829 9.800650 -0.340056 24.000000
