# .PCD v0.7 - Point Cloud Data file format
VERSION 0.7
FIELDS x y z intensity
SIZE 4 4 4 4
TYPE F F F F
COUNT 1 1 1 1
WIDTH 50
HEIGHT 1
VIEWPOINT 0 0 0 1 0 0 0
POINTS 50
DATA ascii
6.040062 5.943825 -1.315155 6.000000
6.099074 5.928678 -1.320226 9.000000
6.039844 5.835139 -1.303007 8.000000
6.114817 5.835468 -1.311713 7.000000
6.112636 5.797649 -1.307295 7.000000
6.067177 5.719251 -1.293394 16.000000
6.147376 5.759356 -1.307150 7.000000
6.227155 5.798348 -1.320748 7.000000
6.068115 5.615538 -1.282191 9.000000
6.107113 5.616953 -1.286937 16.000000
6.186769 5.620551 -1.296745 17.000000
6.185664 5.584997 -1.292798 14.000000
6.187338 5.552142 -1.289484 10.000000
6.182238 5.513413 -1.284747 5.000000
6.191736 5.487870 -1.283171 4.000000
6.268550 5.521727 -1.295977 10.000000
6.338202 5.548660 -1.307203 11.000000
6.294119 5.476030 -1.294248 20.000000
6.258613 5.411476 -1.283189 8.000000
6.257215 5.376801 -1.279400 7.000000
6.244401 5.332565 -1.273240 6.000000
6.240408 5.296128 -1.268977 9.000000
6.319698 5.297075 -1.278785 12.000000
6.314679 5.259962 -1.274364 8.000000
6.299605 5.214743 -1.267888 12.000000
6.290414 5.174686 -1.262676 11.000000
6.281801 5.135359 -1.257623 12.000000
6.249250 5.076829 -1.247669 10.000000
6.278624 5.068801 -1.250518 10.000000
6.277203 5.035917 -1.247045 12.000000
6.723479 5.966650 -1.162805 33.000000
6.732829 5.938132 -1.161218 41.000000
6.732374 5.901124 -1.157906 38.000000
6.737736 5.869379 -1.155656 37.000000
6.737720 5.833119 -1.152477 46.000000
6.739048 5.798206 -1.149563 41.000000
6.743240 5.765916 -1.147179 41.000000
6.751832 5.737503 -1.145592 40.000000
6.751978 5.702062 -1.142546 54.000000
6.765643 5.678136 -1.141887 43.000000
6.759426 5.637683 -1.137779 51.000000
6.756843 5.600483 -1.134334 66.000000
6.751033 5.560833 -1.130359 85.000000
6.741975 5.518761 -1.125852 82.000000
6.738107 5.481173 -1.122275 75.000000
6.741782 5.449888 -1.120023 71.000000
6.744556 5.418013 -1.117640 71.000000
6.752623 5.390498 -1.116185 73.000000
6.752040 5.356212 -1.113271 92.000000
6.766104 5.333633 -1.112877 69.000000
