# .PCD v0.7 - Point Cloud Data file format
VERSION 0.7
FIELDS x y z intensity
SIZE 4 4 4 4
TYPE F F F F
COUNT 1 1 1 1
WIDTH 1255
HEIGHT 1
VIEWPOINT 0 0 0 1 0 0 0
POINTS 1255
DATA ascii
-2.258707 9.508768 0.148766 14.000000
-0.339465 7.882881 -1.244472 15.000000
-2.000310 8.338841 -0.278536 81.000000
-0.357419 8.801066 -0.527052 49.000000
-0.348406 8.706400 -0.095360 53.000000
-2.153201 9.083364 1.995817 21.000000
-2.161750 9.238408 0.609924 39.000000
-0.321986 8.712083 -0.095572 52.000000
-1.721033 7.125423 -0.949360 23.000000
-0.332354 8.870589 -0.531905 28.000000
-2.067317 8.702521 -0.732244 12.000000
-1.977498 8.356267 -0.279198 93.000000
-2.214651 9.447948 0.148061 71.000000
-0.312213 8.891877 0.765820 44.000000
-0.332588 10.640465 1.954795 35.000000
-0.316062 7.908175 -1.248733 10.000000
-0.313671 8.689295 0.325312 58.000000
-2.129173 9.104067 1.059731 30.000000
-2.103825 9.002130 1.510762 22.000000
-0.342528 9.072126 -0.991950 7.000000
-2.121306 9.070460 1.991579 22.000000
-0.285664 8.918373 0.767733 51.000000
-1.709889 7.177640 -0.956360 25.000000
-2.183691 9.444561 0.147807 32.000000
-0.306231 8.912113 -0.534835 27.000000
-1.955248 8.376557 -0.279984 90.000000
-2.042273 8.715250 -0.733047 10.000000
-0.314817 9.071791 -0.991949 12.000000
-0.295691 8.724682 -0.095920 54.000000
-2.086154 9.042144 1.984091 10.000000
-0.286938 8.677884 0.324852 84.000000
-2.132955 9.241706 0.609578 34.000000
-2.111038 9.153903 1.064312 18.000000
-2.072403 8.989848 1.507649 29.000000
-0.291540 7.892982 -1.246178 13.000000
-0.299696 10.613545 1.949769 23.000000
-2.097448 9.226069 1.071322 13.000000
-1.681782 7.154444 -0.952443 25.000000
-0.260436 8.675388 0.324655 52.000000
-0.280365 8.979493 -0.539551 23.000000
-0.269354 8.739202 -0.096307 52.000000
-1.932674 8.395816 -0.280727 84.000000
-0.269973 8.014750 -1.266729 9.000000
-2.045657 8.998708 1.507944 19.000000
-2.106477 9.255650 0.609859 48.000000
-2.160832 9.478210 0.147842 34.000000
-0.258861 8.939808 0.769258 43.000000
-2.039365 8.829075 -0.743285 11.000000
-0.267008 10.589481 1.945270 23.000000
-0.287529 9.092222 -0.994414 8.000000
-2.048703 9.002214 1.974168 12.000000
-2.019076 9.008457 1.508396 22.000000
-0.244388 7.953078 -1.256359 17.000000
-2.093172 9.343952 1.083297 15.000000
-2.077635 9.258781 0.609517 54.000000
-0.234375 10.558425 1.939549 28.000000
-0.233976 8.674812 0.324517 63.000000
-0.260234 9.119523 -0.997701 14.000000
-2.014774 8.977468 1.967499 15.000000
-1.909995 8.415017 -0.281469 93.000000
-1.670464 7.207578 -0.959582 37.000000
-1.987359 8.719089 -0.732651 8.000000
-0.231911 8.960166 0.770705 54.000000
-0.243262 8.774636 -0.097107 31.000000
-0.207729 8.691146 0.324872 45.000000
-0.216556 8.779001 -0.097296 36.000000
-2.084930 9.446321 1.093578 25.000000
-1.996106 9.035530 1.511632 29.000000
-0.232677 9.139791 -1.000165 13.000000
-1.885769 8.427313 -0.281919 85.000000
-2.055163 9.292109 0.610934 37.000000
-0.221136 8.023444 -1.268265 17.000000
-0.242204 10.195365 -0.623476 26.000000
-0.204761 8.973463 0.771607 45.000000
-2.111660 9.531657 0.147807 11.000000
-1.986850 8.980385 1.966723 10.000000
-1.654685 7.241345 -0.963922 20.000000
-0.201947 10.528253 1.934004 35.000000
-1.637287 7.268296 -0.967284 24.000000
-0.200765 9.224072 -0.556656 13.000000
-0.177517 8.983685 0.772276 44.000000
-0.190340 8.834270 -0.098491 25.000000
-2.028266 9.304848 0.611158 36.000000
-0.169730 10.499948 1.928811 39.000000
-1.954972 8.964032 1.961883 12.000000
-0.205274 9.183805 -1.005450 6.000000
-0.196758 8.033594 -1.270031 14.000000
-1.859659 8.430733 -0.281995 74.000000
-0.181357 8.703400 0.325111 44.000000
-2.058577 9.463996 1.094670 15.000000
-1.976395 9.078991 1.517498 24.000000
-1.956209 8.835634 -0.742784 8.000000
-2.072841 9.490725 0.147270 8.000000
-0.150316 9.014761 0.774582 27.000000
-1.936699 8.877306 -0.746308 4.000000
-0.137679 10.471544 1.923619 32.000000
-0.172528 8.068322 -1.275952 10.000000
-1.616912 7.281641 -0.968685 30.000000
-2.033517 9.488423 1.096503 15.000000
-0.154936 8.720572 0.325496 41.000000
-0.173169 9.296129 -0.561717 12.000000
-1.927892 8.970598 1.961921 21.000000
-1.957218 9.126288 1.523984 29.000000
-2.528518 11.866563 0.165250 14.000000
-1.832736 8.430160 -0.281903 70.000000
-2.008084 9.350775 0.613312 24.000000
-0.163603 8.863467 -0.099172 16.000000
-0.141582 10.176325 -0.125221 20.000000
-1.961407 9.291750 1.549343 13.000000
-0.105782 10.435170 1.917031 18.000000
-0.148000 8.089173 -1.279543 16.000000
-2.488161 11.853313 0.164885 24.000000
-1.911776 8.893575 -0.747469 8.000000
-1.596065 7.292994 -0.969802 25.000000
-1.989590 9.406461 0.616034 19.000000
-2.009484 9.518644 1.098971 15.000000
-0.145023 9.346158 -0.565266 7.000000
-1.804832 8.424610 -0.281599 76.000000
-0.128599 8.805639 0.327850 23.000000
-1.903085 8.988611 1.964399 23.000000
-0.123004 9.086634 0.780082 7.000000
-0.149747 9.292441 -1.018487 8.000000
-1.983562 9.540020 1.100489 21.000000
-0.121460 9.333227 -1.023418 9.000000
-0.110547 10.181374 -0.125438 57.000000
-1.881792 9.024805 1.970735 18.000000
-0.074052 10.422327 1.914639 42.000000
-1.776205 8.415046 -0.281127 46.000000
-1.967301 9.444485 0.617735 15.000000
-0.117653 10.125369 -0.619075 19.000000
-0.101761 8.797663 0.327513 28.000000
-1.957358 9.420483 1.568820 42.000000
-1.571397 7.416048 0.130812 34.000000
-1.883257 8.892194 -0.746995 6.000000
-0.122909 7.936400 -1.253868 5.000000
-1.576146 7.309137 -0.971621 20.000000
-1.865560 8.945432 -0.751609 6.000000
-0.098594 8.107968 -1.282903 15.000000
-1.550172 7.295115 -0.969100 16.000000
-2.020829 9.800650 -0.340056 24.000000
-1.931857 9.415811 0.615582 4.000000
-0.086816 10.094413 -0.617060 17.000000
-0.074846 8.832583 0.328420 28.000000
-1.927369 9.419298 1.567567 20.000000
-1.539418 7.372379 0.130306 61.000000
-1.979515 9.674560 1.114246 52.000000
-0.079518 10.176328 -0.125457 45.000000
-1.871498 9.118617 1.989255 9.000000
-0.042565 10.383785 1.907704 17.000000
-0.092919 9.389814 -1.030231 4.000000
-0.047596 8.886414 0.329876 17.000000
-0.073706 8.145355 -1.289322 16.000000
-1.508471 7.332516 0.129832 118.000000
-0.022621 10.290661 1.379261 4.000000
-0.055966 10.106261 -0.618001 33.000000
-1.847427 9.143205 1.993152 17.000000
-0.011106 10.367795 1.904792 25.000000
-1.989419 9.798584 -0.339897 36.000000
-0.048605 10.154190 -0.125137 34.000000
-1.528471 7.302383 -0.969658 16.000000
-1.905354 9.459752 1.572966 13.000000
-1.955454 9.708556 1.117134 65.000000
-0.064164 9.413543 -1.033163 7.000000
-1.843189 8.976161 -0.754134 10.000000
-0.034964 9.476908 -1.040798 13.000000
-0.048945 8.127449 -1.286425 16.000000
-1.517008 7.363072 -0.977918 9.000000
-1.926233 9.716117 1.117176 68.000000
-0.017711 10.143960 -0.125054 31.000000
-1.813728 8.970649 -0.753293 14.000000
0.020228 10.347775 1.901181 30.000000
-1.959325 9.803297 -0.340026 39.000000
-1.486112 7.336758 0.129698 110.000000
-1.880363 9.485602 1.576048 12.000000
-1.860418 9.352203 0.610945 4.000000
-0.025233 10.091082 -0.617084 38.000000
-0.024037 8.136090 -1.288018 11.000000
-1.498017 7.385815 -0.980715 19.000000
-1.668397 8.472942 0.559783 24.000000
0.005307 10.066832 -0.615546 29.000000
-1.853623 9.502641 1.577738 8.000000
-1.896265 9.719675 1.116796 70.000000
-1.466113 7.353712 0.129661 87.000000
0.013038 10.126637 -0.124831 31.000000
0.051275 10.316829 1.895649 22.000000
0.039768 10.268145 1.376250 12.000000
-0.001250 9.944333 -1.096303 41.000000
0.001905 8.222547 -1.302752 11.000000
-1.461250 7.421326 -0.238585 44.000000
-1.634195 8.431494 0.556971 71.000000
0.035600 10.036502 -0.613594 33.000000
0.028439 9.894298 -1.090533 30.000000
-1.455002 7.419792 0.129991 53.000000
0.043548 10.101220 -0.124448 18.000000
0.082255 10.293663 1.891518 26.000000
-1.494999 7.550063 -0.620809 16.000000
0.070739 10.250791 1.373988 5.000000
-1.478005 7.403635 -0.982815 30.000000
-1.864712 9.714326 1.115466 52.000000
0.026804 8.209338 -1.300686 10.000000
0.101764 10.241277 1.372739 17.000000
-1.441560 7.475046 0.130238 25.000000
-1.473741 7.564047 -0.621857 42.000000
-1.440213 7.434262 -0.239098 77.000000
0.113365 10.283199 1.889659 17.000000
0.074168 10.090708 -0.124360 13.000000
-1.612194 8.456749 0.558009 65.000000
0.065759 10.009073 -0.611846 35.000000
0.058569 9.889848 -1.090172 30.000000
-1.462345 7.445752 -0.988417 29.000000
-1.834081 9.713770 1.114664 42.000000
-1.802761 9.709210 1.113445 11.000000
0.053105 8.273944 -1.311760 13.000000
0.088346 9.867438 -1.087692 30.000000
0.132551 10.222748 1.370353 15.000000
0.144107 10.258867 1.885355 19.000000
-1.435407 7.426455 -0.985186 24.000000
-1.587620 8.468192 0.558258 50.000000
-1.455892 7.597589 -0.624719 49.000000
-2.153074 11.650835 0.161342 11.000000
0.095952 9.990535 -0.610717 30.000000
-1.451630 7.631129 -0.247428 6.000000
-1.429064 7.523096 -0.998634 19.000000
0.118946 9.887630 -1.090269 50.000000
-1.433559 7.606567 -0.625308 42.000000
-1.561128 8.468739 0.557886 69.000000
-1.884838 10.311028 0.151096 11.000000
0.125941 9.967916 -0.609311 45.000000
-1.485620 7.964963 -0.261580 7.000000
0.163303 10.207102 1.368348 18.000000
0.174834 10.239364 1.881927 15.000000
-1.402043 7.503664 -0.995406 29.000000
0.148667 9.869008 -1.088258 36.000000
-1.414230 7.633141 -0.627537 49.000000
-1.538322 8.490853 0.558755 64.000000
0.103487 8.266860 -1.310949 13.000000
0.205009 10.205986 1.876053 28.000000
-1.371814 7.479056 0.129780 18.000000
0.155932 9.951188 -0.608316 39.000000
0.193596 10.179461 1.364827 23.000000
0.185876 9.936365 -0.607458 44.000000
-1.394091 7.655736 -0.629402 53.000000
-1.511476 8.489266 0.558268 67.000000
0.235533 10.189248 1.873152 21.000000
-1.377811 7.499754 -0.994419 19.000000
0.178243 9.849304 -1.086127 46.000000
-1.346721 7.469063 0.129544 158.000000
-1.721630 9.770448 1.117905 12.000000
0.133835 8.448510 -1.341822 8.000000
0.224484 10.175526 1.364342 12.000000
-1.365668 7.568042 -1.003804 13.000000
0.156113 8.334376 -1.322780 13.000000
-1.480304 8.460998 0.556260 67.000000
0.265552 10.160615 1.868155 22.000000
-1.375930 7.691060 -0.632446 64.000000
0.254323 10.141757 1.360065 25.000000
-1.325400 7.481692 0.129480 33.000000
0.215687 9.919460 -0.606460 49.000000
-1.410598 7.964407 -0.261455 6.000000
0.207971 9.837454 -1.084936 35.000000
0.284194 10.113851 1.356549 21.000000
-1.773519 10.422786 0.151083 12.000000
0.237496 9.821545 -1.083274 34.000000
-1.356604 7.720448 -0.634944 52.000000
-1.340314 7.558160 -1.001972 21.000000
-1.450731 8.441492 0.554762 51.000000
0.182075 8.348300 -1.325367 11.000000
-1.407592 8.100524 -0.267205 42.000000
0.245298 9.899476 -0.605255 41.000000
0.295251 10.127959 1.862462 35.000000
-1.337278 7.750766 -0.637536 74.000000
-1.325565 7.613685 -1.009537 24.000000
-1.383199 8.106420 -0.267428 80.000000
-1.879166 11.302058 0.157366 11.000000
0.325441 10.111937 1.859739 31.000000
-1.423776 8.437660 0.554167 41.000000
0.313958 10.087835 1.353287 27.000000
0.274770 9.879400 -0.604048 34.000000
0.266871 9.804554 -1.081492 32.000000
0.296064 9.785492 -1.079474 28.000000
-1.305096 7.634956 -1.012194 18.000000
0.304246 9.862229 -0.603047 51.000000
-1.845009 11.309383 0.157200 31.000000
-1.316088 7.770214 -0.639126 70.000000
0.343653 10.063715 1.350279 26.000000
-1.360771 8.125076 -0.268196 48.000000
0.234514 8.382798 -1.331704 9.000000
0.354732 10.078119 1.853874 33.000000
-1.245261 7.445902 0.497051 66.000000
0.373029 10.035544 1.346767 26.000000
-1.296292 7.799452 -0.641625 46.000000
0.333099 9.833012 -0.601218 28.000000
-1.803763 11.211826 -0.399219 24.000000
0.325065 9.764358 -1.077218 41.000000
-1.295380 7.726632 -1.024948 14.000000
0.384356 10.055037 1.849931 41.000000
-1.223168 7.453290 0.497150 80.000000
0.265835 8.513706 -1.354092 12.000000
-1.811707 11.322542 0.157079 30.000000
0.402549 10.013236 1.344015 32.000000
0.354185 9.748100 -1.075550 36.000000
-1.772040 11.293073 0.156648 14.000000
-1.263638 7.676370 -1.017362 22.000000
0.362166 9.811682 -0.599938 37.000000
-1.274107 7.813872 -0.642757 59.000000
-1.202051 7.467532 0.497646 109.000000
0.413805 10.030887 1.845816 33.000000
0.286583 8.399238 -1.335042 8.000000
-1.764982 11.186315 -0.398094 15.000000
-1.178871 7.467875 0.497351 79.000000
-1.293279 8.183657 -0.270615 15.000000
0.443527 10.014513 1.843099 32.000000
0.312960 8.412753 -1.337626 18.000000
-1.252286 7.831182 -0.644163 67.000000
0.431764 9.987866 1.340885 33.000000
-1.246293 7.720986 -1.023384 19.000000
0.382899 9.725804 -1.073175 45.000000
-1.312119 8.357801 0.134965 38.000000
0.390743 9.783292 -0.598175 31.000000
-1.247657 7.968685 -0.656681 37.000000
-1.219884 7.704813 -1.020709 20.000000
0.461155 9.968353 1.338515 27.000000
0.472631 9.989202 1.838811 30.000000
-1.293007 8.441940 0.552621 22.000000
0.419567 9.762789 -0.596961 33.000000
-1.285804 8.355493 0.134783 60.000000
0.411420 9.702433 -1.070680 43.000000
0.345471 8.541394 -1.359682 17.000000
-1.273957 8.226795 -0.272431 65.000000
0.370512 8.521251 -1.356605 7.000000
-1.250102 8.239218 -0.272943 79.000000
-1.259232 8.351125 0.134590 72.000000
0.490148 9.943804 1.335515 36.000000
0.447830 9.734232 -0.595195 45.000000
0.439701 9.676995 -1.067949 45.000000
-1.276555 8.512777 0.556320 68.000000
-1.290152 8.447443 -0.700717 44.000000
0.501779 9.966758 1.835049 28.000000
-1.204705 7.766978 -1.029256 25.000000
0.531118 9.949143 1.832161 33.000000
-1.232422 8.344693 0.134384 60.000000
-1.263143 8.442128 -0.700032 71.000000
-1.177719 7.746745 -1.026015 19.000000
0.468309 9.659406 -1.066158 59.000000
0.475932 9.705596 -0.593427 50.000000
-1.215394 8.172376 -0.270093 27.000000
-1.251005 8.519279 0.556353 75.000000
0.519193 9.922141 1.332894 46.000000
0.560088 9.927511 1.828577 41.000000
-1.237242 8.444623 -0.700076 55.000000
-1.155527 7.760758 -1.027685 20.000000
-1.202257 8.312400 0.133992 86.000000
-1.223346 8.509866 0.555485 71.000000
0.546934 9.882577 1.328001 20.000000
0.504360 9.684844 -0.592209 53.000000
0.433011 8.687424 -1.385404 7.000000
-1.572019 11.043891 -0.391899 25.000000
0.496317 9.633805 -1.063424 51.000000
-1.194491 8.490455 0.554053 59.000000
0.532851 9.666995 -0.591197 45.000000
0.456981 8.646358 -1.378830 6.000000
-1.176023 8.308757 0.133808 85.000000
0.351176 7.049995 -1.465516 24.000000
0.576402 9.871634 1.326774 34.000000
-1.210049 8.437160 -0.699209 58.000000
0.588780 9.903831 1.824644 30.000000
-1.156163 7.947451 -1.054057 6.000000
-1.133090 7.929297 -0.259766 61.000000
0.524551 9.614067 -1.061394 56.000000
0.617696 9.884976 1.821586 47.000000
0.604603 9.843782 1.323400 38.000000
-1.149445 8.302054 0.133605 92.000000
-1.106771 7.915534 -0.259178 50.000000
0.561311 9.650059 -0.590253 33.000000
-1.120717 7.864194 -1.041834 19.000000
-1.182152 8.423683 -0.697794 63.000000
-1.060114 7.628901 0.504726 18.000000
0.480641 8.604244 -1.372089 13.000000
0.374022 7.068036 -1.469881 27.000000
0.552605 9.593258 -1.059246 49.000000
0.589329 9.628064 -0.588962 48.000000
0.646222 9.862113 1.817830 27.000000
0.397128 7.087953 -1.474674 15.000000
-1.467082 11.026082 -0.391094 26.000000
0.580834 9.576328 -1.057568 41.000000
-1.044866 7.697187 0.508323 28.000000
-1.154583 8.412098 -0.696558 79.000000
0.633176 9.822778 1.320911 36.000000
-1.090123 7.815180 -1.034519 20.000000
-1.122905 8.295274 0.133404 107.000000
0.661008 9.793778 1.317414 41.000000
-1.026138 7.739673 0.510455 38.000000
0.675079 9.845056 1.815124 29.000000
0.545354 8.764686 -1.400053 14.000000
0.608817 9.557337 -1.055653 49.000000
-1.077154 7.906575 -1.047277 10.000000
0.617665 9.611958 -0.588084 47.000000
0.417847 7.073702 -1.471955 18.000000
-1.099751 8.316208 0.133404 91.000000
-1.127819 8.406353 -0.695868 68.000000
-1.216034 9.227850 -0.314826 26.000000
0.689133 9.770631 1.314675 32.000000
-1.100408 8.394584 -0.694632 51.000000
0.645815 9.594772 -0.587135 52.000000
-1.185325 9.209353 -0.314041 40.000000
0.703094 9.819081 1.810848 26.000000
-1.074752 8.322174 0.133296 80.000000
-1.000604 7.725580 0.509375 65.000000
0.573400 8.779350 -1.402964 12.000000
0.636752 9.539253 -1.053854 55.000000
-1.055853 7.933077 -1.050772 23.000000
0.445504 7.150930 -1.489411 25.000000
0.610924 8.910890 -1.425687 10.000000
0.731464 9.798915 1.807620 32.000000
0.717461 9.751357 1.312444 27.000000
-1.155644 9.198696 -0.313591 49.000000
-1.072846 8.380749 -0.693212 42.000000
0.673629 9.574523 -0.585979 47.000000
0.467887 7.156009 -1.490984 23.000000
-0.979088 7.746128 0.510267 79.000000
-1.035087 7.965424 -1.055109 14.000000
0.664426 9.519109 -1.051818 46.000000
-1.341559 10.895467 0.151573 21.000000
0.631512 8.829047 -1.412280 6.000000
-1.009305 7.955421 -1.053406 19.000000
-1.307883 10.895210 0.151388 36.000000
-0.955918 7.752728 0.510373 58.000000
0.760079 9.782590 1.805092 36.000000
0.692493 9.504823 -1.050488 35.000000
-1.125696 9.184971 -0.313012 50.000000
0.701338 9.554193 -0.584821 38.000000
0.488535 7.139605 -1.487834 20.000000
-1.046038 8.372766 -0.692336 33.000000
0.745002 9.724097 1.309203 51.000000
-1.095624 9.169163 -0.312348 56.000000
0.719709 9.481550 -1.048097 46.000000
-0.936004 7.790034 0.512225 47.000000
0.772744 9.700713 1.306468 25.000000
-1.093500 9.213577 0.139213 22.000000
-1.017334 8.346880 -0.689817 32.000000
0.671798 8.980972 -1.438499 6.000000
0.728671 9.530803 -0.583455 60.000000
0.512774 7.165958 -1.494127 12.000000
-0.987954 7.984699 -1.057319 18.000000
0.788963 9.770105 1.803264 30.000000
-1.064524 9.142321 -0.311220 68.000000
0.545320 7.283676 -1.520597 8.000000
0.755854 9.507335 -0.582088 41.000000
-0.990327 8.544287 0.554699 39.000000
0.816742 9.746750 1.799516 33.000000
-0.937176 7.988248 0.130333 50.000000
0.746508 9.455233 -1.045351 59.000000
-1.256033 11.151537 1.815536 4.000000
0.800611 9.680210 1.304114 22.000000
-0.971320 8.059197 -1.067695 15.000000
-0.991760 8.348619 -0.689853 30.000000
0.693420 8.913717 -1.427588 16.000000
-0.948368 8.077540 -1.070065 17.000000
-1.216071 11.095033 1.805969 12.000000
-0.964597 8.549922 0.554740 42.000000
-0.965366 8.342354 -0.689158 21.000000
0.562720 7.229116 -1.509074 11.000000
0.844673 9.726257 1.796294 34.000000
0.725719 8.966201 -1.436990 9.000000
0.782343 9.477830 -0.580305 58.000000
0.828264 9.658642 1.301635 39.000000
-1.034004 9.119349 -0.310259 58.000000
-0.912023 7.982781 0.130155 68.000000
0.773797 9.435763 -1.043428 58.000000
-0.888659 7.995154 0.130107 88.000000
0.585174 7.230912 -1.510000 12.000000
-0.925000 8.092866 -1.072012 12.000000
0.755357 8.987160 -1.441063 7.000000
0.856402 9.642918 1.299915 37.000000
0.808675 9.448253 -0.578521 52.000000
-0.940398 8.349884 -0.689737 22.000000
0.800609 9.412261 -1.041033 51.000000
-0.938730 8.554492 0.554728 39.000000
0.872998 9.710584 1.793946 41.000000
-1.002240 9.082364 -0.308705 80.000000
-1.179312 11.067898 1.801032 12.000000
0.883744 9.620204 1.297312 37.000000
-1.142633 11.039659 1.795943 16.000000
-0.918859 8.622600 0.558315 17.000000
0.900629 9.688951 1.790551 29.000000
0.606882 7.224863 -1.509206 19.000000
-0.914620 8.349410 -0.689585 35.000000
0.827680 9.392635 -1.039108 41.000000
-0.865036 8.005468 0.130046 117.000000
0.835232 9.422573 -0.577012 63.000000
0.780290 8.958958 -1.436808 12.000000
-0.970711 9.045270 -0.307149 69.000000
-0.902418 8.116994 -1.075222 19.000000
0.854326 9.369970 -1.036828 48.000000
-1.106869 11.019165 1.792090 14.000000
-0.842375 8.026663 0.130062 48.000000
0.927812 9.664302 1.786634 26.000000
-0.885398 8.546493 0.553749 55.000000
0.910319 9.591495 1.293953 47.000000
-0.890726 8.368682 -0.691259 24.000000
-0.940718 9.021994 -0.306182 80.000000
0.805948 8.939517 -1.434052 4.000000
0.862038 9.400791 -0.575778 59.000000
0.633088 7.263446 -1.518288 16.000000
-0.882806 8.173581 -1.083069 16.000000
-1.070556 10.990680 1.787004 15.000000
-0.911507 9.005582 -0.305510 80.000000
0.657705 7.284451 -1.523505 16.000000
0.889447 9.385877 -0.575025 63.000000
-0.907000 9.029884 0.137002 66.000000
0.838586 8.987669 -1.442784 11.000000
-0.857492 8.171954 -1.082628 8.000000
-0.868353 8.405735 -0.694577 30.000000
0.937794 9.572575 1.291857 42.000000
-0.855317 8.503078 0.551040 84.000000
0.954952 9.640556 1.782893 27.000000
0.881459 9.353155 -1.035253 55.000000
0.679120 7.274300 -1.521852 17.000000
-0.878180 9.017341 0.136770 69.000000
0.982416 9.620649 1.779851 35.000000
0.965509 9.556533 1.290142 48.000000
-0.829232 8.503339 0.550806 109.000000
0.916464 9.367908 -0.574064 51.000000
-0.847494 8.462574 -0.699718 35.000000
-0.881702 8.981118 -0.304498 69.000000
0.908513 9.336263 -1.033678 68.000000
-0.837640 8.231394 -1.090895 11.000000
0.865823 8.982765 -1.442524 15.000000
-1.034741 10.966018 1.782537 16.000000
-1.028238 10.861773 1.219412 16.000000
-0.803969 8.513470 0.551136 92.000000
-0.994244 10.853642 1.218111 36.000000
0.992232 9.532528 1.287418 45.000000
0.892278 8.970920 -1.441096 9.000000
-0.850019 9.011683 0.136588 78.000000
1.008635 9.590884 1.775065 34.000000
-0.998922 10.939273 1.777764 20.000000
0.943605 9.351846 -0.573240 51.000000
-0.822167 8.470743 -0.700386 50.000000
0.709405 7.344658 -1.538015 12.000000
-0.809614 8.200039 -1.086235 11.000000
0.935253 9.317318 -1.031865 50.000000
-0.852052 8.956556 -0.303484 65.000000
1.019624 9.515345 1.285578 44.000000
0.961994 9.299284 -1.030170 53.000000
-0.779131 8.529494 0.551803 85.000000
0.732390 7.346969 -1.539152 14.000000
0.927388 9.035412 -1.452658 23.000000
-0.788428 8.248509 -1.092958 8.000000
-0.963749 10.918318 1.773918 21.000000
1.035956 9.571803 1.772201 34.000000
-0.822806 8.934883 -0.302596 73.000000
-0.961413 10.859283 1.218281 19.000000
0.970536 9.334714 -0.572346 49.000000
-0.820634 8.989984 0.136295 70.000000
-0.798995 8.505632 -0.703519 54.000000
-0.793781 8.914110 -0.301749 72.000000
1.047036 9.499069 1.283867 30.000000
-0.929840 10.912025 1.772386 15.000000
1.061851 9.541894 1.767418 50.000000
-0.791547 8.970183 0.136017 74.000000
0.952676 9.012612 -1.449397 15.000000
-0.776011 8.545421 -0.707109 81.000000
0.997133 9.315523 -0.571312 52.000000
0.755961 7.354059 -1.541361 15.000000
0.988861 9.283146 -1.028709 66.000000
-0.760346 8.626084 0.557019 42.000000
-0.770035 8.335414 -1.105162 8.000000
-0.762880 8.954280 0.135770 63.000000
0.981253 9.018133 -1.450964 12.000000
-0.744665 8.338376 -1.105419 14.000000
1.014927 9.261018 -1.026539 49.000000
1.074116 9.480744 1.281904 47.000000
1.023623 9.296258 -0.570277 45.000000
-0.895974 10.905631 1.770856 25.000000
0.782143 7.382408 -1.548292 20.000000
-0.752339 8.579191 -0.710150 45.000000
1.089046 9.523640 1.764730 34.000000
-0.745343 8.782385 0.565605 27.000000
-0.764741 8.891253 -0.300814 70.000000
-0.709048 8.673244 0.985647 3.000000
-0.720123 8.806209 0.566723 43.000000
-0.734110 8.935295 0.135505 78.000000
-0.735355 8.861326 -0.299581 90.000000
1.115760 9.502380 1.761522 33.000000
1.050002 9.276920 -0.569240 51.000000
-0.861951 10.896175 1.768867 29.000000
0.808979 7.414545 -1.556080 13.000000
-0.726526 8.586082 -0.710722 63.000000
1.006364 8.995186 -1.447699 10.000000
1.041350 9.242760 -1.024838 42.000000
-0.718850 8.335338 -1.104829 18.000000
1.101342 9.464314 1.280196 34.000000
-0.706642 8.838279 -0.298643 110.000000
-0.702826 8.623689 -0.714126 51.000000
1.128083 9.444855 1.278111 36.000000
1.076389 9.258498 -0.568270 56.000000
-0.696772 8.384561 -1.111690 20.000000
-0.687837 8.726355 0.562003 71.000000
1.052630 9.140426 -1.473082 36.000000
-0.828205 10.889568 1.767341 26.000000
1.066787 9.217531 -1.022311 37.000000
1.142217 9.480070 1.758140 27.000000
0.833568 7.427206 -1.559574 13.000000
-0.705606 8.918209 0.135254 71.000000
0.865381 7.494998 -1.575305 11.000000
-0.676860 8.630425 -0.714698 69.000000
-0.676959 8.897042 0.134977 67.000000
1.103058 9.242969 -0.567507 42.000000
1.092717 9.197160 -1.020372 40.000000
1.078869 9.124122 -1.470981 37.000000
-0.673198 8.415944 -1.116021 10.000000
1.168150 9.454761 1.754236 27.000000
-0.661267 8.728088 0.561888 83.000000
-0.795451 10.897646 1.768130 11.000000
1.154974 9.427286 1.276279 44.000000
-0.678470 8.821119 -0.297956 83.000000
-0.760980 10.878012 1.764603 18.000000
1.129382 9.225387 -0.566604 70.000000
1.117619 9.169825 -1.017607 55.000000
1.180968 9.403746 1.273691 59.000000
-0.653457 8.509507 -1.129208 14.000000
-0.650095 8.798886 -0.297057 89.000000
1.195288 9.439135 1.752079 21.000000
-0.647953 8.867798 0.134646 64.000000
-0.653058 8.671870 -0.718467 42.000000
-0.635599 8.744691 0.562615 77.000000
0.887616 7.487143 -1.574289 13.000000
1.106321 9.117517 -1.470544 48.000000
1.208076 9.388975 1.272240 43.000000
-0.627862 8.694366 -0.720499 40.000000
-0.625235 8.474565 -1.124117 7.000000
-0.618889 8.834471 0.134290 91.000000
1.132159 9.099105 -1.468109 47.000000
-0.727245 10.869122 1.762774 21.000000
-0.622323 8.784543 -0.296495 87.000000
0.920315 7.556646 -1.590448 15.000000
-0.608961 8.746269 0.562502 71.000000
1.143448 9.150293 -1.015784 58.000000
1.221530 9.417581 1.748875 27.000000
1.155620 9.207728 -0.565700 47.000000
-0.602196 8.710823 -0.721982 40.000000
-0.603997 8.555167 -1.135477 11.000000
-0.594537 8.768118 -0.295846 58.000000
1.169164 9.130692 -1.013960 51.000000
1.248348 9.400828 1.746545 35.000000
-0.693523 10.859139 1.760791 30.000000
1.235804 9.379038 1.271421 31.000000
0.940968 7.536051 -1.586639 14.000000
-0.582322 8.747766 0.562390 81.000000
-0.589872 8.798051 0.133914 91.000000
1.158300 9.083550 -1.466171 45.000000
1.181619 9.189010 -0.564726 43.000000
-0.562341 8.785503 0.133705 88.000000
1.194905 9.112002 -1.012252 63.000000
0.972606 7.593728 -1.600222 10.000000
-0.659626 10.844116 1.758040 32.000000
1.274208 9.378154 1.743169 30.000000
-0.576334 8.725212 -0.723283 46.000000
1.261037 9.352331 1.268459 49.000000
1.207789 9.172193 -0.563889 64.000000
-0.555945 8.754164 0.562559 65.000000
-0.566969 8.753597 -0.295282 78.000000
1.184487 9.068898 -1.464399 68.000000
-0.577733 8.553668 -1.135167 9.000000
-0.529390 8.757489 0.562560 54.000000
-0.534205 8.758885 0.133401 86.000000
1.209037 9.043439 -1.460793 44.000000
1.300233 9.357357 1.740144 25.000000
1.001384 7.629050 -1.608865 14.000000
1.287288 9.333407 1.266507 44.000000
-0.539744 8.743979 -0.294928 79.000000
-0.551153 8.754443 -0.725953 35.000000
1.231992 9.142470 -0.562153 38.000000
-0.624877 10.809248 1.752208 27.000000
1.221401 9.099137 -1.011250 72.000000
-0.553192 8.584715 -1.139496 19.000000
1.246092 9.074408 -1.008834 60.000000
-0.528207 8.610751 -1.143120 16.000000
-0.502530 8.754755 0.562226 58.000000
1.257810 9.124525 -0.561245 63.000000
-0.512520 8.733283 -0.294529 80.000000
1.235195 9.029615 -1.459186 54.000000
-0.506911 8.747166 0.133202 78.000000
1.326014 9.335516 1.736944 25.000000
-0.590901 10.787106 1.748381 23.000000
1.016237 7.568617 -1.596249 14.000000
-0.461534 7.029788 -1.274191 18.000000
1.313605 9.315392 1.264681 52.000000
-0.525448 8.776643 -0.727983 32.000000
1.260240 9.008894 -1.456411 45.000000
-0.475866 8.755926 0.562118 75.000000
-0.441954 7.070058 -1.281865 24.000000
-0.502296 8.619900 -1.144354 11.000000
1.052773 7.653987 -1.616057 14.000000
-0.556743 10.756957 1.743323 19.000000
1.271683 9.056485 -1.007241 67.000000
1.282771 9.101576 -0.559990 53.000000
1.340274 9.300241 1.263236 55.000000
1.351819 9.314576 1.733921 25.000000
-0.499796 8.802743 -0.730378 54.000000
-0.485503 8.725495 -0.294257 65.000000
-0.479828 8.738357 0.133024 73.000000
1.296101 9.031623 -1.004821 43.000000
-0.474040 8.829763 -0.732865 51.000000
1.377809 9.295512 1.731248 25.000000
1.365300 9.275219 1.260530 45.000000
1.308363 9.083491 -0.559079 50.000000
-0.458668 8.720616 -0.294111 68.000000
-0.523018 10.732621 1.739191 20.000000
-0.452731 8.727464 0.132834 80.000000
1.081195 7.683221 -1.623410 5.000000
-0.479331 8.698209 -1.155433 12.000000
-0.420512 7.073979 -1.282528 24.000000
1.286066 8.993953 -1.454635 60.000000
-0.448776 8.746041 0.561393 84.000000
1.107531 7.697879 -1.627541 13.000000
1.321161 9.011600 -1.002990 34.000000
-0.422001 8.743056 0.561062 79.000000
-0.400765 7.119039 -1.291151 13.000000
-0.489050 10.697319 1.733366 23.000000
-0.451404 8.664672 -1.150617 7.000000
1.311510 8.976990 -1.452524 52.000000
-0.448081 8.855713 -0.735260 33.000000
-0.425739 8.717486 0.132652 76.000000
1.404648 9.282207 1.729623 27.000000
1.391299 9.256985 1.258709 55.000000
1.332922 9.059422 -0.557753 42.000000
-0.431938 8.717653 -0.294049 55.000000
1.416889 9.236720 1.256636 51.000000
-0.379071 7.120875 -1.291432 23.000000
1.335307 8.950218 -1.448746 30.000000
-0.430604 8.818040 -1.172388 9.000000
-0.455579 10.670802 1.728929 23.000000
-0.421779 8.876612 -0.737196 44.000000
-0.398868 8.709427 0.132485 70.000000
1.132891 7.705698 -1.630169 15.000000
1.346911 8.996411 -1.001748 74.000000
-0.405186 8.713612 -0.293943 61.000000
-0.394804 8.727019 0.560004 89.000000
1.358952 9.045135 -0.557116 55.000000
1.429500 9.257167 1.725904 29.000000
1.372746 8.982127 -1.000622 61.000000
1.163361 7.744276 -1.639667 4.000000
-0.422063 10.637265 1.723416 28.000000
1.443029 9.220300 1.255068 39.000000
1.385397 9.033726 -0.556686 64.000000
1.456511 9.245654 1.724630 38.000000
-0.402579 8.786326 -1.167851 13.000000
1.361827 8.940901 -1.447967 47.000000
-0.395545 8.903405 -0.739680 37.000000
-0.379182 8.732456 -0.294810 29.000000
-0.372078 8.702285 0.132326 71.000000
-0.367827 8.714891 0.559171 93.000000
-0.356251 7.091246 -1.285647 20.000000
1.183135 7.717234 -1.634562 10.000000
1.396684 8.956999 -0.998198 43.000000
-0.345434 8.698056 0.132187 75.000000
-0.389125 10.616461 1.719907 21.000000
-0.369700 8.948033 -0.743812 49.000000
1.482612 9.229213 1.722485 27.000000
-0.335890 7.131217 -1.293321 21.000000
1.468562 9.200872 1.253124 37.000000
-0.378317 8.869313 -1.179635 6.000000
-0.352373 8.726253 -0.294618 51.000000
1.386500 8.920809 -1.445353 42.000000
1.412264 9.025194 -0.556462 71.000000
-0.341052 8.706668 0.558563 75.000000
-0.343185 8.977657 -0.746570 51.000000
-0.318791 8.692746 0.132044 81.000000
1.437749 9.008716 -0.555684 61.000000
1.211597 7.742137 -1.641052 10.000000
1.494164 9.182354 1.251307 42.000000
-0.314824 7.155427 -1.297962 24.000000
1.422157 8.941598 -0.996952 50.000000
-0.317898 8.846087 0.566245 66.000000
-0.356194 10.590615 1.715629 35.000000
1.508290 9.210756 1.719992 35.000000
-0.349549 8.808731 -1.171016 7.000000
1.412060 8.906482 -1.443738 44.000000
-0.327023 8.775899 -0.296798 29.000000
-0.287032 8.661031 0.555727 99.000000
-0.301315 8.823477 -0.298893 19.000000
1.233400 7.727481 -1.638737 10.000000
1.436883 8.888194 -1.441455 50.000000
1.446200 8.918296 -0.994762 48.000000
-0.292647 8.709352 0.132051 58.000000
-0.323571 10.572574 1.712585 25.000000
1.462304 8.987251 -0.554560 38.000000
-0.325833 8.937100 -1.189272 18.000000
1.533194 9.188353 1.716802 38.000000
-0.316714 9.017159 -0.750243 41.000000
-0.294354 7.208042 -1.308100 27.000000
1.519682 9.163762 1.249491 37.000000
-0.290917 10.546530 1.708310 37.000000
1.545279 9.146077 1.247802 45.000000
1.266828 7.779130 -1.651239 12.000000
1.460925 8.865955 -1.438505 47.000000
1.560263 9.178476 1.715881 34.000000
-0.297112 8.871404 -1.179947 11.000000
1.489009 8.978490 -0.554333 14.000000
-0.290083 9.060564 -0.754281 47.000000
-0.272282 7.205628 -1.307619 19.000000
-0.275066 8.857992 -0.300436 15.000000
1.471675 8.903730 -0.993632 43.000000
-0.262724 8.776348 0.562066 50.000000
-0.266421 8.726880 0.132066 47.000000
-0.262962 9.089950 -0.757039 34.000000
-0.258518 10.525320 1.704807 21.000000
1.515661 8.969651 -0.554104 9.000000
-0.271419 8.945185 -1.190463 15.000000
1.485354 8.846565 -1.436054 49.000000
1.496885 8.888119 -0.992383 34.000000
1.584231 9.152061 1.711995 31.000000
-0.240213 8.751324 0.132129 42.000000
1.293500 7.791236 -1.654935 9.000000
-0.251469 7.264008 -1.318895 11.000000
-0.235706 8.756821 0.560845 56.000000
1.570588 9.127346 1.245988 44.000000
-0.248721 8.898420 -0.302234 11.000000
-0.213832 8.773689 0.132178 34.000000
-0.226353 10.512902 1.702692 18.000000
1.595980 9.109523 1.244302 28.000000
-0.235720 9.123237 -0.760162 26.000000
1.315171 7.775388 -1.652403 22.000000
-0.238564 10.184540 -0.356927 21.000000
-0.229405 7.270296 -1.320122 19.000000
-0.209728 8.814084 0.563936 41.000000
1.609508 9.133327 1.709507 27.000000
1.520761 8.865600 -0.990307 56.000000
1.510035 8.829050 -1.433934 42.000000
-0.244023 8.938707 -1.189580 10.000000
-0.194062 10.478654 1.697190 27.000000
-0.183417 8.874269 0.567196 29.000000
-0.207436 7.286336 -1.323243 18.000000
-0.208467 9.174367 -0.764931 19.000000
1.620182 9.085779 1.241859 43.000000
1.354428 7.854543 -1.671131 7.000000
1.634885 9.115490 1.707193 43.000000
1.532831 8.801770 -1.430148 70.000000
-0.216881 8.949966 -1.191229 14.000000
1.544890 8.844967 -0.988467 46.000000
-0.187257 8.790977 0.132195 32.000000
-0.207467 10.180899 -0.356868 36.000000
-0.181379 9.283171 -0.775009 10.000000
-0.185181 7.285621 -1.323140 25.000000
-0.176354 10.172168 -0.356595 37.000000
-0.160529 8.801187 0.132165 32.000000
-0.190365 9.034406 -1.203293 20.000000
1.644636 9.063921 1.239669 42.000000
1.569837 8.829148 -0.987215 49.000000
1.378954 7.852916 -1.671818 7.000000
1.660173 9.097583 1.704880 30.000000
-0.157526 9.069160 0.578009 11.000000
-0.161980 10.445294 1.691843 31.000000
1.556395 8.779279 -1.427194 68.000000
1.669531 9.044920 1.237860 44.000000
-0.133940 8.867311 0.132514 16.000000
1.594503 8.812287 -0.985844 47.000000
1.580943 8.762536 -1.425239 52.000000
-0.129688 8.989404 0.573434 25.000000
-0.145308 10.162340 -0.356279 29.000000
-0.162732 9.023720 -1.201844 8.000000
1.410106 7.885743 -1.680236 10.000000
-0.130171 10.431596 1.689578 25.000000
-0.153426 9.351065 -0.781336 9.000000
1.683829 9.071878 1.701173 41.000000
-0.163154 7.311345 -1.328157 19.000000
-0.106951 8.930351 0.132843 4.000000
1.619267 8.796333 -0.984589 56.000000
-0.098466 10.392108 1.683311 40.000000
1.436416 7.892572 -1.682855 11.000000
1.605590 8.746696 -1.423448 55.000000
1.708308 9.050942 1.698340 22.000000
-0.102317 9.011403 0.574567 21.000000
-0.135345 9.064432 -1.207715 15.000000
-0.114328 10.153417 -0.356003 43.000000
-0.124945 9.364103 -0.782627 8.000000
-0.140865 7.315401 -1.329002 21.000000
1.693545 9.021960 1.235547 39.000000
-0.096354 9.392990 -0.785382 5.000000
1.734067 9.036695 1.696728 37.000000
-0.107681 9.064471 -1.207813 9.000000
-0.074748 9.048298 0.576540 5.000000
-0.118601 7.349829 -1.335724 14.000000
1.477053 7.971161 -1.701580 13.000000
1.629784 8.728849 -1.421324 53.000000
1.717650 8.999909 1.233360 45.000000
-0.083400 10.137407 -0.355430 39.000000
-0.066913 10.371302 1.679971 29.000000
1.643383 8.777387 -0.982981 56.000000
-0.035486 10.350400 1.676632 22.000000
1.741437 8.976823 1.231049 37.000000
1.653886 8.710937 -1.419199 60.000000
-0.052589 10.117309 -0.354685 39.000000
1.667990 8.761294 -0.981725 58.000000
1.495983 7.939474 -1.695607 7.000000
-0.066072 9.809155 -0.823754 15.000000
-0.079811 9.140659 -1.218750 14.000000
1.758959 9.018517 1.694420 34.000000
-0.096157 7.356697 -1.337135 17.000000
1.766920 8.962416 1.229874 47.000000
-0.035890 9.846820 -0.827335 20.000000
-0.073561 7.390987 -1.343857 16.000000
-0.021916 10.096116 -0.353896 48.000000
1.678088 8.693926 -1.417240 63.000000
1.705133 8.760756 -0.105914 5.000000
1.784964 9.006053 1.693159 28.000000
-0.052101 9.108848 -1.214341 6.000000
1.692310 8.744162 -0.980350 59.000000
1.545499 8.057964 -1.723351 8.000000
-0.004185 10.330390 1.673449 25.000000
1.808848 8.983885 1.690156 30.000000
1.560342 8.006024 -1.712865 10.000000
0.026931 10.306331 1.669652 35.000000
-0.051080 7.381024 -1.342044 18.000000
1.702394 8.677816 -1.415445 52.000000
-0.023402 9.212581 -1.229221 17.000000
1.716938 8.728909 -0.979209 63.000000
0.008616 10.074829 -0.353106 45.000000
-0.006366 9.796765 -0.822857 12.000000
1.789440 8.934353 1.226935 49.000000
1.586394 8.008536 -1.714621 6.000000
1.832209 8.959730 1.686804 20.000000
1.741293 8.712616 -0.977950 66.000000
0.057961 10.285143 1.666317 30.000000
0.004920 9.230097 -1.231850 10.000000
0.038831 10.039466 -0.351719 47.000000
1.813070 8.912051 1.224753 50.000000
0.025309 9.933819 -0.835595 39.000000
1.725811 8.657780 -1.412984 49.000000
-0.028543 7.381795 -1.342316 22.000000
1.615762 8.026241 -1.719812 6.000000
1.856720 8.941285 1.684499 30.000000
0.035886 9.416804 -1.258559 13.000000
0.088898 10.264853 1.663138 34.000000
1.749961 8.641534 -1.411189 71.000000
1.836806 8.890657 1.222697 52.000000
0.055172 9.905490 -0.833129 29.000000
1.765994 8.698195 -0.976926 72.000000
0.069122 10.019998 -0.351011 46.000000
1.852599 8.996212 0.784338 3.000000
-0.005417 7.425696 -1.350932 15.000000
1.783463 8.735996 -0.105866 6.000000
0.017795 7.458724 -1.357463 14.000000
0.119656 10.242493 1.659653 36.000000
0.063715 9.365836 -1.251471 7.000000
1.646284 8.048615 -1.726076 7.000000
0.099181 9.995442 -0.350089 42.000000
1.774019 8.625225 -1.409392 49.000000
1.861276 8.873078 1.221148 61.000000
1.806245 8.737592 -0.542787 4.000000
1.880911 8.921814 1.682022 31.000000
1.789344 8.677884 -0.975193 50.000000
0.085634 9.917891 -0.834417 36.000000
0.129103 9.971795 -0.349208 48.000000
0.150240 10.219050 1.656015 36.000000
1.884558 8.850595 1.218970 53.000000
1.813866 8.663332 -0.974166 53.000000
0.115563 9.903316 -0.833232 35.000000
1.798198 8.609815 -1.407760 64.000000
0.092991 9.398918 -1.256353 9.000000
0.040419 7.451430 -1.356216 14.000000
1.902604 8.891715 1.677627 34.000000
1.668107 8.030824 -1.723318 7.000000
0.121620 9.396280 -1.256163 14.000000
0.159023 9.953052 -0.348539 51.000000
0.180747 10.197493 1.652686 32.000000
0.145665 9.898606 -0.832961 30.000000
1.909934 8.837722 1.218053 37.000000
1.926558 8.872123 1.675151 36.000000
1.836363 8.639990 -0.972078 46.000000
1.822307 8.594336 -1.406128 49.000000
0.065414 7.551062 -1.375646 14.000000
1.714822 8.124479 -1.745688 6.000000
1.846352 8.578787 -1.404495 51.000000
0.188907 9.936219 -0.347953 45.000000
1.935265 8.824774 1.217137 56.000000
1.749369 8.161731 -1.755386 12.000000
1.860294 8.623365 -0.970814 56.000000
1.949981 8.850548 1.672327 30.000000
0.151512 9.440071 -1.262593 10.000000
0.210992 10.170909 1.648589 21.000000
0.175417 9.881863 -0.831589 29.000000
0.088468 7.550496 -1.375724 15.000000
0.218454 9.912307 -0.347068 40.000000
1.884135 8.606679 -0.969549 68.000000
0.176766 9.321474 -1.245922 5.000000
1.974412 8.833706 1.670377 51.000000
1.870092 8.562214 -1.402695 44.000000
0.205093 9.866025 -0.830308 25.000000
0.240799 10.136334 1.643263 35.000000
1.761784 8.101772 -1.743176 11.000000
1.959850 8.808859 1.215844 54.000000
0.112106 7.570470 -1.379787 21.000000
1.998745 8.816799 1.668428 35.000000
1.893288 8.543657 -1.400559 50.000000
0.234523 9.846117 -0.828659 54.000000
0.207075 9.376961 -1.254040 14.000000
1.906521 8.584128 -0.967575 59.000000
1.983654 8.789981 1.214174 48.000000
0.270783 10.112533 1.639630 48.000000
0.135517 7.579574 -1.381763 19.000000
0.247984 9.892299 -0.346352 41.000000
0.238409 9.451147 -1.264834 9.000000
0.159429 7.601361 -1.386204 10.000000
0.277358 9.871204 -0.345592 42.000000
1.810763 8.088307 -1.742808 5.000000
0.300786 10.092590 1.636615 35.000000
1.929936 8.566352 -0.966190 67.000000
0.263760 9.824131 -0.826825 30.000000
1.917073 8.527918 -1.398922 49.000000
1.862144 8.193520 -1.767966 15.000000
1.940338 8.510191 -1.396953 51.000000
0.306549 9.848029 -0.344745 52.000000
0.330443 10.066640 1.632677 38.000000
0.292891 9.802059 -0.824991 41.000000
1.952816 8.546577 -0.964569 61.000000
0.181822 7.578925 -1.382105 9.000000
0.270028 9.520285 -1.274923 19.000000
0.321843 9.778909 -0.823063 46.000000
0.335284 9.817781 -0.343600 51.000000
1.963044 8.490486 -1.394649 48.000000
1.976062 8.528673 -0.963183 63.000000
0.208570 7.666296 -1.399258 14.000000
1.873767 8.132424 -1.755538 13.000000
0.360627 10.055408 1.631049 32.000000
0.294724 9.416216 -1.260359 8.000000
0.232264 7.672158 -1.400661 19.000000
1.999678 8.512640 -0.962030 60.000000
0.325562 9.461426 -1.267066 11.000000
0.364200 9.795431 -0.342793 48.000000
1.986105 8.472642 -1.392676 49.000000
0.351241 9.768601 -0.822325 36.000000
0.389943 10.028294 1.626961 46.000000
1.896479 8.117805 -1.753632 7.000000
0.255812 7.674025 -1.401306 17.000000
1.961734 8.273679 -1.790385 26.000000
0.393236 9.777987 -0.342198 54.000000
0.354326 9.458080 -1.266869 6.000000
0.379688 9.740304 -0.819936 49.000000
0.419614 10.010959 1.624413 32.000000
0.448767 9.985647 1.620634 46.000000
0.408456 9.720875 -0.818371 40.000000
1.970938 8.203884 -1.776021 23.000000
0.280858 7.705238 -1.407641 15.000000
0.384672 9.485299 -1.271039 12.000000
0.421488 9.747488 -0.341048 48.000000
1.982408 8.144517 -1.764019 13.000000
0.412818 9.468925 -1.269008 13.000000
0.304593 7.707938 -1.408472 27.000000
0.437118 9.701362 -0.816805 56.000000
0.477952 9.963212 1.617319 56.000000
0.450704 9.736858 -0.340749 33.000000
0.449355 9.599733 -1.287971 30.000000
0.329218 7.726248 -1.412340 15.000000
0.507226 9.944633 1.614620 33.000000
0.478642 9.706193 -0.339597 40.000000
0.465823 9.684746 -0.815513 60.000000
0.494052 9.662083 -0.813668 42.000000
0.352209 7.715075 -1.410514 12.000000
0.535809 9.917093 1.610539 38.000000
0.478213 9.591071 -1.287066 45.000000
0.507082 9.686418 -0.338911 42.000000
0.522491 9.644307 -0.812282 42.000000
0.535030 9.660578 -0.337969 49.000000
0.380035 7.782230 -1.423870 10.000000
0.506285 9.570467 -1.284469 36.000000
0.564319 9.890459 1.606612 44.000000
0.563520 9.644626 -0.337452 51.000000
0.534240 9.549780 -1.281871 42.000000
0.593234 9.871630 1.603917 35.000000
0.406164 7.816955 -1.430962 11.000000
0.550560 9.622473 -0.810527 40.000000
0.578281 9.597578 -0.808496 45.000000
0.560822 9.511236 -1.276735 35.000000
0.430158 7.817309 -1.431411 18.000000
0.621814 9.849759 1.600762 46.000000
0.591912 9.628589 -0.336933 49.000000
0.605698 9.570619 -0.806280 55.000000
0.620275 9.613466 -0.336456 52.000000
0.650179 9.826819 1.597455 41.000000
0.586371 9.461759 -1.270047 32.000000
0.456743 7.853824 -1.438882 10.000000
0.678814 9.808723 1.594918 34.000000
0.482978 7.882417 -1.444834 19.000000
0.633810 9.554502 -0.805072 48.000000
0.617120 9.484277 -1.273646 53.000000
0.648484 9.597264 -0.335935 45.000000
0.507880 7.891346 -1.446989 8.000000
0.644504 9.462284 -1.270902 52.000000
0.707277 9.789561 1.592228 30.000000
0.676936 9.584962 -0.335584 49.000000
0.661043 9.528377 -0.802946 46.000000
0.704980 9.568594 -0.335061 50.000000
0.533709 7.910961 -1.451231 16.000000
0.671108 9.432319 -1.267029 34.000000
0.688700 9.509123 -0.801460 60.000000
0.735288 9.766377 1.588924 30.000000
0.716574 9.493756 -0.800340 61.000000
0.763584 9.748034 1.586391 27.000000
0.734137 9.566078 -0.335133 36.000000
0.699036 9.420035 -1.265692 50.000000
0.565066 7.995064 -1.468002 8.000000
0.759949 9.526659 -0.333627 22.000000
0.726990 9.408656 -1.264494 60.000000
0.790877 9.719771 1.582321 31.000000
0.588020 7.976346 -1.464840 11.000000
0.743389 9.467399 -0.798210 36.000000
0.753451 9.381420 -1.261041 49.000000
0.615364 8.007434 -1.471358 16.000000
0.781338 9.442410 -0.330201 7.000000
0.818301 9.694384 1.578713 38.000000
0.771168 9.452866 -0.797179 51.000000
0.798482 9.434285 -0.795781 41.000000
0.846252 9.675802 1.576183 33.000000
0.781241 9.369881 -1.259841 46.000000
0.643539 8.045273 -1.479205 12.000000
0.825288 9.411663 -0.794014 49.000000
0.808284 9.351362 -1.257654 48.000000
0.872989 9.646327 1.571963 44.000000
0.665459 8.015579 -1.473952 9.000000
0.695445 8.068873 -1.484836 12.000000
0.851861 9.387975 -0.792154 37.000000
0.835419 9.334736 -1.255747 37.000000
0.900991 9.630537 1.569897 24.000000
0.928186 9.607789 1.566755 37.000000
0.862683 9.320002 -1.254122 51.000000
0.729977 8.163081 -1.503692 12.000000
0.878732 9.368175 -0.790660 30.000000
0.905488 9.348297 -0.789165 36.000000
0.955466 9.586930 1.563922 37.000000
0.753765 8.149747 -1.501664 22.000000
0.889968 9.306172 -1.252636 62.000000
0.916840 9.289311 -1.250726 55.000000
0.932230 9.329333 -0.787760 47.000000
0.785309 8.208575 -1.513685 8.000000
0.982502 9.565011 1.560937 31.000000
1.009641 9.544980 1.558261 34.000000
0.943283 9.269423 -1.248392 44.000000
0.813515 8.234111 -1.519250 11.000000
0.958975 9.311285 -0.786446 46.000000
1.036921 9.526834 1.555893 35.000000
0.969514 9.248474 -1.245916 51.000000
0.838429 8.229313 -1.518929 10.000000
0.985055 9.288214 -0.784673 43.000000
0.864129 8.231264 -1.519935 5.000000
1.064466 9.511553 1.553987 30.000000
1.011483 9.269025 -0.783265 44.000000
0.995629 9.227453 -1.243439 57.000000
0.891488 8.246782 -1.523600 11.000000
1.080486 9.413813 1.063607 3.000000
1.037423 9.246798 -0.781581 42.000000
1.021251 9.203413 -1.240537 43.000000
1.091169 9.490310 1.551160 33.000000
1.038935 9.172068 -0.320557 4.000000
0.925110 8.311903 -1.536947 7.000000
1.062733 9.220548 -0.779528 51.000000
1.046609 9.178320 -1.237493 51.000000
1.118129 9.471933 1.548796 46.000000
1.145137 9.454459 1.546586 41.000000
1.072345 9.157084 -1.235013 59.000000
1.131518 9.359104 1.058472 6.000000
1.088935 9.202129 -0.778208 53.000000
0.931789 8.161645 -1.508330 10.000000
0.974332 8.293766 -1.534777 14.000000
1.160281 9.357271 1.058624 18.000000
1.099776 9.149520 -1.234506 36.000000
1.115301 9.185611 -0.777072 49.000000
1.171522 9.432992 1.543762 44.000000
1.141023 9.165071 -0.775566 63.000000
1.182616 9.309051 1.053863 11.000000
0.999900 8.292377 -1.535210 5.000000
1.196955 9.405580 1.540017 51.000000
1.154769 9.187130 -0.322063 6.000000
1.124111 9.119308 -1.230753 51.000000
1.222931 9.382992 1.537043 53.000000
1.208575 9.288352 1.052032 14.000000
1.039808 8.395968 -1.556150 11.000000
1.166772 9.145447 -0.774152 39.000000
1.150172 9.102764 -1.228974 54.000000
1.176009 9.085164 -1.227054 62.000000
1.249352 9.364244 1.534684 60.000000
1.241544 9.316795 1.055430 27.000000
1.073307 8.448830 -1.567216 9.000000
1.192839 9.128708 -0.773011 45.000000
1.201476 9.065532 -1.224850 64.000000
1.267875 9.298882 1.053913 26.000000
1.218537 9.109924 -0.771687 48.000000
1.274814 9.339558 1.531403 43.000000
1.100351 8.453937 -1.568976 17.000000
1.244122 9.091070 -0.770361 51.000000
1.124029 8.435641 -1.566178 7.000000
1.301158 9.321643 1.529200 47.000000
1.227112 9.047790 -1.222927 65.000000
1.294691 9.284831 1.052817 34.000000
1.152374 8.449328 -1.569645 15.000000
1.252795 9.030954 -1.221143 60.000000
1.269449 9.071161 -0.768942 50.000000
1.320519 9.264805 1.051094 41.000000
1.326647 9.298772 1.526230 48.000000
1.185248 8.492040 -1.578809 12.000000
1.347174 9.250601 1.050000 36.000000
1.294979 9.053150 -0.767706 46.000000
1.352172 9.276808 1.523414 58.000000
1.278094 9.012090 -1.219077 63.000000
1.320108 9.033099 -0.766285 47.000000
1.217196 8.526866 -1.586452 12.000000
1.303297 8.993155 -1.217010 56.000000
1.377897 9.256724 1.520906 40.000000
1.372346 9.227483 1.047965 44.000000
1.398184 9.209206 1.046454 38.000000
1.235239 8.472363 -1.576624 10.000000
1.345437 9.014947 -0.765047 50.000000
1.328546 8.975128 -1.215083 53.000000
1.402867 9.232672 1.517785 54.000000
1.370012 8.992796 -0.763440 58.000000
1.423586 9.188896 1.044736 36.000000
1.271887 8.535110 -1.589773 8.000000
1.353847 8.958011 -1.213295 61.000000
1.428017 9.210502 1.514973 55.000000
1.454212 9.195084 1.513238 51.000000
1.394475 8.970578 -0.761832 70.000000
1.378903 8.939844 -1.211366 62.000000
1.459295 9.249438 1.995816 42.000000
1.296501 8.522147 -1.588108 10.000000
1.449220 9.170477 1.043228 33.000000
1.474431 9.150027 1.041511 37.000000
1.404038 8.922584 -1.209577 63.000000
1.480173 9.178617 1.511349 47.000000
1.056870 7.005393 -1.657255 17.000000
1.485097 9.231132 1.992942 44.000000
1.326093 8.539128 -1.592330 7.000000
1.418994 8.949274 -0.760315 74.000000
1.363073 8.598592 -1.604908 17.000000
1.444071 8.931830 -0.759165 51.000000
1.499696 9.130487 1.039899 39.000000
1.505355 9.158185 1.508847 57.000000
1.080365 7.014260 -1.660394 12.000000
1.509440 9.205037 1.988452 56.000000
1.429075 8.905253 -1.207787 77.000000
1.453834 8.886882 -1.205854 65.000000
1.468175 8.909417 -0.757553 66.000000
1.536721 9.196235 1.987603 33.000000
1.398732 8.648237 -1.615585 20.000000
1.524839 9.110881 1.038290 42.000000
1.102762 7.016351 -1.661864 20.000000
1.531803 9.145468 1.507577 46.000000
1.134253 7.070024 -1.676203 20.000000
1.418620 8.606871 -1.608409 17.000000
1.477812 8.864543 -1.203357 72.000000
1.558382 9.133645 1.506460 34.000000
1.562228 9.177715 1.984732 41.000000
1.549893 9.091206 1.036681 43.000000
1.492874 8.890858 -0.756309 75.000000
