# .PCD v0.7 - Point Cloud Data file format
VERSION 0.7
FIELDS x y z intensity
SIZE 4 4 4 4
TYPE F F F F
COUNT 1 1 1 1
WIDTH 311
HEIGHT 1
VIEWPOINT 0 0 0 1 0 0 0
POINTS 311
DATA ascii
6.517981 -10.008601 2.258832 25.000000
6.523559 -10.084671 2.271306 15.000000
6.519165 -10.145984 2.280481 23.000000
6.503347 -10.189962 2.285806 16.000000
6.495743 -10.247224 2.294065 12.000000
6.492564 -10.312020 2.303973 9.000000
6.388230 -10.321332 3.558710 13.000000
6.352901 -10.363047 4.228478 7.000000
6.353518 -10.335969 3.557044 8.000000
6.315272 -10.344754 3.553422 10.000000
6.283505 -10.364077 3.553431 5.000000
6.281858 -10.389692 4.223597 6.000000
6.251413 -10.411342 4.224585 5.000000
6.250194 -10.380834 3.552602 4.000000
6.217021 -10.426409 4.222961 5.000000
6.187413 -10.449495 4.224602 6.000000
6.155804 -10.469239 4.224937 7.000000
6.125562 -10.491336 4.226253 8.000000
6.543782 -11.136847 2.440458 6.000000
6.098087 -10.518251 4.229527 5.000000
6.512063 -11.161112 2.441384 8.000000
6.479763 -11.184436 2.442126 8.000000
6.458658 -11.227265 2.447085 8.000000
6.435887 -11.267509 2.451494 12.000000
5.898153 -11.145282 3.695997 6.000000
5.866612 -11.168421 3.697680 5.000000
5.856297 -11.232339 3.712767 9.000000
5.817838 -11.242574 3.710263 6.000000
6.440422 -12.607840 3.401672 8.000000
6.316725 -12.651775 3.397761 6.000000
6.187975 -12.613982 4.114936 5.000000
6.238513 -12.667377 2.665079 6.000000
6.187219 -12.683136 3.390838 7.000000
6.197032 -12.681154 2.663988 7.000000
6.144204 -12.622543 4.111594 6.000000
6.149091 -12.681529 2.660147 9.000000
6.141497 -12.688046 3.387140 6.000000
6.041322 -12.607178 4.094577 4.000000
6.099501 -12.678185 2.655572 8.000000
6.006740 -12.634320 4.097378 4.000000
5.960576 -12.637053 4.092360 5.000000
6.004087 -12.700930 3.375814 9.000000
5.918522 -12.648319 4.090136 8.000000
5.957057 -12.679504 2.644413 7.000000
5.915784 -12.715473 3.370040 4.000000
5.837992 -12.678284 4.088197 5.000000
5.793881 -12.684777 4.084575 8.000000
5.812238 -12.673024 2.631970 7.000000
5.759488 -12.660372 2.625745 8.000000
5.751767 -12.695492 4.082350 9.000000
5.771955 -12.710914 3.354775 6.000000
5.698618 -12.681546 4.072305 8.000000
5.636986 -12.723469 3.344375 10.000000
5.619984 -12.661623 2.615318 4.000000
5.566060 -12.644613 2.608359 10.000000
5.548497 -12.657819 4.048315 4.000000
5.552202 -12.742651 3.340453 4.000000
5.467137 -12.577034 4.017326 4.000000
5.528027 -12.663430 2.608734 3.000000
5.425863 -12.587572 4.015379 5.000000
5.291176 -12.592707 4.001441 5.000000
5.085162 -12.754843 4.022430 4.000000
6.527380 -10.057425 2.004708 35.000000
6.533898 -10.135469 2.016079 25.000000
4.999098 -12.766128 4.016302 7.000000
4.964425 -12.793039 4.019940 10.000000
6.507027 -10.162114 2.017385 33.000000
3.942804 -10.234505 4.439454 5.000000
4.916534 -12.785801 4.012966 5.000000
6.508633 -10.233660 2.027458 18.000000
6.379453 -10.086725 2.603108 4.000000
4.570555 -12.039800 4.478832 5.000000
6.490793 -10.345297 2.041435 6.000000
4.518286 -12.013070 4.463813 6.000000
3.835412 -10.235602 4.424542 6.000000
3.794301 -10.221228 4.413350 9.000000
6.473250 -10.355145 3.304705 7.000000
6.467369 -10.378561 2.044039 9.000000
6.407943 -10.270846 2.639995 9.000000
6.446916 -10.416814 2.047618 9.000000
6.389781 -10.312063 2.645480 7.000000
4.406839 -11.938599 4.426261 7.000000
4.369216 -11.949396 4.425288 7.000000
6.382230 -10.350260 3.290731 5.000000
6.364259 -10.341609 2.648015 4.000000
3.739451 -10.266102 4.422693 7.000000
6.324230 -10.326947 3.277268 6.000000
6.355826 -10.353874 3.946110 7.000000
6.384933 -10.459539 2.048282 3.000000
4.336398 -11.973405 4.429214 10.000000
6.338106 -10.370259 2.650341 8.000000
6.309809 -10.395503 2.651822 4.000000
6.490850 -10.706947 2.092124 16.000000
4.277298 -11.924377 4.406354 15.000000
6.327991 -10.379824 3.948572 5.000000
6.517483 -10.825734 2.111127 22.000000
6.294637 -10.396743 3.947658 7.000000
4.260315 -11.992657 4.426614 4.000000
6.528267 -10.919372 2.125259 16.000000
6.499771 -10.947833 2.126890 9.000000
4.169231 -11.968585 4.408334 7.000000
6.026982 -10.189076 3.204511 5.000000
3.526628 -10.265619 4.393986 6.000000
6.515236 -11.051038 2.142808 17.000000
6.001071 -10.216679 3.207367 5.000000
3.478978 -10.228960 4.373836 7.000000
4.081964 -11.953688 4.393647 10.000000
6.511694 -11.122925 2.152719 16.000000
4.028618 -11.916909 4.375687 11.000000
6.518675 -11.213666 2.166201 14.000000
3.463570 -10.287060 4.393997 5.000000
3.437568 -10.314356 4.401094 7.000000
3.990838 -11.925624 4.374387 9.000000
6.507906 -11.274638 2.174002 16.000000
5.944558 -10.264172 3.210748 7.000000
6.501237 -11.343354 2.183263 14.000000
5.929400 -10.310831 3.219563 10.000000
3.943529 -11.905511 4.362633 6.000000
5.908747 -10.348267 3.225527 5.000000
3.917292 -11.948984 4.374072 7.000000
6.503475 -11.428432 2.195610 12.000000
3.350595 -10.262935 4.370497 6.000000
3.871861 -11.933972 4.364278 13.000000
3.334499 -10.320831 4.390658 8.000000
5.902201 -10.410884 3.239264 8.000000
6.505251 -11.513632 2.207956 21.000000
6.500776 -11.588619 2.218354 10.000000
5.892486 -10.468508 3.251446 4.000000
3.838408 -11.955691 4.367878 6.000000
6.489664 -11.652480 2.226642 17.000000
3.799992 -11.962004 4.365924 14.000000
6.504466 -11.763882 2.243859 17.000000
3.773479 -12.006061 4.377689 6.000000
6.509154 -11.858181 2.257830 15.000000
3.725117 -11.980577 4.364302 10.000000
3.692513 -12.005496 4.369208 5.000000
6.507191 -11.941354 2.269689 10.000000
6.533400 -12.077574 2.291453 16.000000
3.648782 -11.994161 4.361047 12.000000
3.606247 -11.986290 4.354193 12.000000
6.527108 -12.154943 2.302176 18.000000
6.517620 -12.227162 2.311925 11.000000
3.561097 -11.969213 4.344072 12.000000
6.498526 -12.281991 2.318428 15.000000
3.545706 -12.052614 4.370212 3.000000
3.047757 -10.407151 4.389957 7.000000
6.485117 -12.348174 2.327040 15.000000
3.500789 -12.036207 4.360417 10.000000
3.465675 -12.053246 4.362709 6.000000
6.461334 -12.395139 2.332080 11.000000
3.425835 -12.053820 4.359121 4.000000
6.199114 -12.071973 2.265039 6.000000
6.463147 -12.569957 3.077406 11.000000
3.383167 -12.187531 4.399639 7.000000
6.124884 -12.017951 2.251569 7.000000
6.407889 -12.529612 3.804100 9.000000
6.375745 -12.589311 3.072574 5.000000
6.359113 -12.624767 3.820953 8.000000
6.292709 -12.616816 3.069850 6.000000
5.969170 -11.983704 2.235029 8.000000
5.962089 -12.062119 2.246077 8.000000
6.249041 -12.695751 3.824860 5.000000
5.151602 -10.404026 4.422078 7.000000
6.013639 -12.261105 2.279206 9.000000
6.154641 -12.646867 2.346433 4.000000
6.155869 -12.702555 3.815548 6.000000
6.033956 -12.514784 4.508931 5.000000
6.105575 -12.697872 3.808561 4.000000
6.077732 -12.668650 3.059560 6.000000
6.069683 -12.669258 2.343687 5.000000
6.037997 -12.685469 3.059145 5.000000
6.034596 -12.695840 2.345155 14.000000
6.055783 -12.693872 3.801831 9.000000
5.985524 -12.692869 2.341265 6.000000
5.996547 -12.698626 3.057888 5.000000
5.958909 -12.690564 3.789928 7.000000
5.947199 -12.694827 3.052627 5.000000
5.941540 -12.700443 2.339324 12.000000
5.926618 -12.587003 4.515090 5.000000
5.908635 -12.713897 3.052844 5.000000
5.916686 -12.701777 3.787863 5.000000
5.897567 -12.707868 2.337382 13.000000
5.847007 -12.700799 2.332842 16.000000
5.859786 -12.710653 3.047793 8.000000
5.805731 -12.695670 3.040003 4.000000
5.794907 -12.689949 2.327652 7.000000
5.749845 -12.694181 2.325224 4.000000
5.781552 -12.716115 3.776225 8.000000
5.757473 -12.692942 3.035163 5.000000
5.660772 -12.686063 3.025272 7.000000
5.650176 -12.680541 2.316468 4.000000
5.682926 -12.705492 3.762766 8.000000
5.615500 -12.689063 3.021907 5.000000
5.564374 -12.678476 3.015381 6.000000
5.538378 -12.552720 4.453141 8.000000
5.540273 -12.698813 3.745687 5.000000
5.515315 -12.672177 3.009909 4.000000
5.508227 -12.588835 4.459900 5.000000
5.459736 -12.582970 4.451926 4.000000
5.383917 -12.619729 4.453166 7.000000
6.305648 -14.990009 3.536326 7.000000
5.349991 -12.647580 4.457162 7.000000
5.310795 -12.663054 4.456861 8.000000
5.279587 -12.697742 4.463313 6.000000
6.084077 -14.936815 4.355591 9.000000
5.182869 -12.684073 4.447364 8.000000
6.035693 -14.949139 4.353784 7.000000
5.989443 -14.966685 4.353531 6.000000
5.070929 -12.630833 4.417909 9.000000
5.943497 -14.984987 4.353539 10.000000
5.026176 -12.631292 4.412697 5.000000
5.892552 -14.990563 4.349919 12.000000
5.842680 -14.998667 4.347075 14.000000
4.883262 -12.608665 4.389080 4.000000
4.757284 -12.627235 4.380195 6.000000
3.905155 -10.421126 4.240267 9.000000
4.714199 -12.630176 4.376210 8.000000
4.669491 -12.628508 4.370690 6.000000
5.509548 -14.951384 4.303591 8.000000
5.450083 -14.931010 4.292975 14.000000
3.790528 -10.405646 4.219745 10.000000
5.402280 -14.942207 4.291427 13.000000
5.347628 -14.934155 4.284437 12.000000
3.735122 -10.352116 4.193550 4.000000
4.480373 -12.589793 4.338175 10.000000
3.709003 -10.379378 4.199926 13.000000
5.296947 -14.936832 4.280558 6.000000
3.672466 -10.377480 4.194621 8.000000
5.244700 -14.934783 4.275383 7.000000
5.192834 -14.933466 4.270466 5.000000
3.636903 -10.378102 4.190376 17.000000
5.141024 -14.931972 4.265550 6.000000
3.600452 -10.375955 4.185069 16.000000
3.573458 -10.401103 4.190738 6.000000
4.314765 -12.612296 4.327452 8.000000
4.273916 -12.619161 4.325308 6.000000
3.520172 -10.349143 4.165604 9.000000
5.039124 -14.933026 4.257012 10.000000
3.488405 -10.359892 4.165608 13.000000
4.231855 -12.622284 4.321937 7.000000
3.452764 -10.359007 4.161009 15.000000
3.409552 -10.334907 4.147205 19.000000
4.149579 -12.633539 4.317035 8.000000
4.106391 -12.632629 4.312436 7.000000
4.812977 -14.862319 4.219986 7.000000
3.374929 -10.336424 4.143668 15.000000
4.760879 -14.856775 4.214293 12.000000
3.343201 -10.346727 4.143672 14.000000
4.066741 -12.642447 4.311520 5.000000
4.708567 -14.850132 4.208339 7.000000
3.309166 -10.349807 4.140843 14.000000
3.978525 -12.633568 4.300172 8.000000
4.667896 -14.880174 4.212749 8.000000
3.279932 -10.367934 4.144033 14.000000
3.233879 -10.332421 4.125981 12.000000
4.616788 -14.876893 4.207832 11.000000
3.194429 -10.317273 4.116071 21.000000
4.572824 -14.896526 4.209392 10.000000
3.891971 -12.628630 4.290359 9.000000
3.157290 -10.309137 4.108993 16.000000
4.526820 -14.909558 4.209138 11.000000
3.807823 -12.630396 4.283000 10.000000
3.123481 -10.311611 4.106164 11.000000
3.768240 -12.639280 4.282084 4.000000
4.431955 -14.925937 4.206040 8.000000
3.079769 -10.280824 4.090235 16.000000
3.729714 -12.651692 4.282396 5.000000
4.385870 -14.938535 4.205786 6.000000
3.040785 -10.265110 4.080325 17.000000
3.004027 -10.256437 4.073247 12.000000
4.332218 -14.925016 4.198277 9.000000
3.642275 -12.640494 4.271047 8.000000
4.283215 -14.927094 4.195173 7.000000
3.604518 -12.655269 4.272279 10.000000
4.233976 -14.928082 4.191811 9.000000
4.185293 -14.930767 4.188966 7.000000
3.557690 -12.637863 4.262768 4.000000
4.137921 -14.937949 4.187417 12.000000
3.510238 -12.617539 4.252336 8.000000
4.084939 -14.924486 4.180166 8.000000
4.031073 -14.907108 4.171881 13.000000
3.991296 -14.941799 4.178104 13.000000
3.380903 -12.600583 4.236079 7.000000
3.337846 -12.594334 4.230557 9.000000
3.948390 -14.965179 4.181218 5.000000
3.892241 -14.937963 4.170340 15.000000
3.298469 -12.601749 4.229640 9.000000
3.261695 -12.619181 4.232100 7.000000
3.840144 -14.925509 4.163609 7.000000
3.799323 -14.956879 4.169055 7.000000
3.217088 -12.606069 4.224430 6.000000
3.180255 -12.623261 4.226890 4.000000
3.751071 -14.959093 4.166468 6.000000
3.142659 -12.637576 4.228427 6.000000
3.697511 -14.939587 4.157922 7.000000
3.650973 -14.948043 4.157150 8.000000
3.605774 -14.961989 4.157932 8.000000
3.058793 -12.630715 4.219841 8.000000
3.555838 -14.956064 4.153272 9.000000
3.020470 -12.641890 4.220458 6.000000
3.504430 -14.943391 4.146799 17.000000
3.455742 -14.941835 4.143435 10.000000
3.409671 -14.951424 4.143181 9.000000
3.362938 -14.958042 4.142148 7.000000
3.311605 -14.943769 4.135416 8.000000
3.259569 -14.925546 4.127647 10.000000
3.211936 -14.926975 4.125320 11.000000
3.165326 -14.932977 4.124287 11.000000
3.114570 -14.918979 4.117814 13.000000
3.065871 -14.914269 4.113931 10.000000
3.022014 -14.933071 4.116526 14.000000
