# .PCD v0.7 - Point Cloud Data file format
VERSION 0.7
FIELDS x y z intensity
SIZE 4 4 4 4
TYPE F F F F
COUNT 1 1 1 1
WIDTH 1242
HEIGHT 1
VIEWPOINT 0 0 0 1 0 0 0
POINTS 1242
DATA ascii
-6.220068 -7.387805 0.006571 45.000000
-6.414998 -7.566837 0.487203 28.000000
-6.509264 -7.674237 0.987912 15.000000
-6.254475 -7.383604 0.006426 44.000000
-6.556222 -7.682649 0.991341 9.000000
-6.285712 -7.375425 0.006311 29.000000
-6.447446 -7.558910 0.487814 31.000000
-6.481905 -7.553092 0.488588 25.000000
-6.327407 -7.379245 0.006178 18.000000
-6.591681 -7.677197 0.993090 15.000000
-6.625839 -7.670117 0.994630 12.000000
-6.351539 -7.362439 0.006101 30.000000
-6.522224 -7.553970 0.489757 32.000000
-6.662571 -7.665952 0.996518 10.000000
-6.556013 -7.547165 0.490435 30.000000
-6.390630 -7.362980 0.005930 40.000000
-6.705886 -7.669132 0.999353 21.000000
-6.425189 -7.358071 0.005779 28.000000
-6.587855 -7.537963 0.490977 41.000000
-6.981784 -7.929695 1.557211 4.000000
-6.623731 -7.533081 0.491835 30.000000
-6.457217 -7.349953 0.005679 40.000000
-6.744761 -7.666819 1.001568 11.000000
-6.670208 -7.540039 0.493421 30.000000
-6.493217 -7.346213 0.005557 37.000000
-6.770496 -7.649424 1.001881 15.000000
-6.802050 -7.638716 1.002992 13.000000
-6.708735 -7.537895 0.494403 38.000000
-6.531151 -7.344637 0.005374 23.000000
-6.566482 -7.339907 0.005207 43.000000
-6.741997 -7.529618 0.495022 38.000000
-6.845553 -7.641237 1.005813 11.000000
-6.782714 -7.529301 0.496199 30.000000
-6.871256 -7.623497 1.006131 16.000000
-6.025519 -6.614199 4.237962 4.000000
-6.593925 -7.326024 0.005125 22.000000
-6.633397 -7.325408 0.004984 43.000000
-6.908256 -7.618233 1.008049 8.000000
-6.821466 -7.526595 0.497229 27.000000
-6.670809 -7.322479 0.004793 33.000000
-6.852771 -7.515676 0.497697 28.000000
-6.951221 -7.619522 1.010761 9.000000
-6.703545 -7.314219 0.004625 42.000000
-6.179950 -6.661573 4.303383 4.000000
-6.892172 -7.513474 0.498715 44.000000
-6.994264 -7.620616 1.013474 10.000000
-7.030045 -7.613388 1.015197 12.000000
-6.226635 -6.671295 4.321661 5.000000
-6.737739 -7.307227 0.004500 49.000000
-6.930360 -7.509555 0.499693 26.000000
-6.965190 -7.501812 0.500438 28.000000
-7.080734 -7.622075 1.019000 6.000000
-6.268487 -6.675516 4.336524 8.000000
-6.773306 -7.301564 0.004366 40.000000
-7.126022 -7.624777 1.021991 5.000000
-7.002675 -7.496924 0.501314 35.000000
-6.814267 -7.301677 0.004157 48.000000
-6.850495 -7.296507 0.003962 49.000000
-7.168659 -7.624378 1.024596 9.000000
-7.039502 -7.491154 0.502137 40.000000
-6.349214 -6.680253 4.364013 7.000000
-7.214172 -7.626613 1.027627 3.000000
-7.076440 -7.485160 0.503007 33.000000
-6.885465 -7.289661 0.003818 41.000000
-6.923227 -7.285558 0.003671 33.000000
-6.445371 -6.699769 4.401825 6.000000
-7.111361 -7.476822 0.503748 32.000000
-7.259097 -7.627904 1.030572 3.000000
-6.961644 -7.282076 0.003477 42.000000
-7.264133 -7.587314 1.027982 7.000000
-7.155192 -7.477796 0.505038 33.000000
-6.576116 -6.860753 1.402130 5.000000
-7.192833 -7.472117 0.505896 27.000000
-6.617986 -6.863064 1.406432 8.000000
-6.994530 -7.272685 0.003285 36.000000
-7.332511 -7.567062 1.030847 4.000000
-7.229193 -7.464775 0.506705 29.000000
-6.642100 -6.846631 1.407052 11.000000
-7.035836 -7.271728 0.003101 49.000000
-6.660542 -6.758109 4.491832 5.000000
-6.670339 -6.834350 1.408544 15.000000
-7.068166 -7.261241 0.002968 32.000000
-7.276045 -7.468001 0.508214 25.000000
-7.381002 -7.571299 1.034255 3.000000
-7.311737 -7.459648 0.508947 29.000000
-6.693657 -6.817067 1.408994 16.000000
-7.111611 -7.262126 0.002744 43.000000
-7.480895 -7.582086 1.041342 5.000000
-7.147389 -7.254993 0.002537 30.000000
-7.354426 -7.458289 0.510120 27.000000
-6.730806 -6.813824 1.412290 15.000000
-6.754798 -6.797026 1.412894 20.000000
-7.520517 -7.576487 1.043486 6.000000
-7.185348 -7.249799 0.002348 31.000000
-7.393007 -7.452436 0.511046 17.000000
-7.433781 -7.448498 0.512137 17.000000
-7.545462 -7.555868 1.043672 7.000000
-7.226915 -7.247945 0.002170 39.000000
-6.780188 -6.781505 1.413809 31.000000
-7.468885 -7.438788 0.512826 19.000000
-6.807601 -6.768036 1.415119 19.000000
-7.264941 -7.242421 0.001971 27.000000
-7.508923 -7.433895 0.513806 31.000000
-7.301539 -7.235360 0.001751 30.000000
-7.628970 -7.548168 1.048479 7.000000
-6.825115 -6.744749 1.414402 15.000000
-7.638907 -7.512576 1.046643 3.000000
-7.550468 -7.430187 0.514904 29.000000
-7.336785 -7.226697 0.001564 26.000000
-6.839063 -6.717905 1.412995 16.000000
-7.374229 -7.219949 0.001392 29.000000
-7.588535 -7.422760 0.515799 28.000000
-6.867097 -6.704844 1.414472 7.000000
-6.015173 -5.863535 1.661981 13.000000
-7.746135 -7.526783 1.054619 4.000000
-6.040575 -5.852900 1.663980 12.000000
-7.416673 -7.217962 0.001172 24.000000
-7.632312 -7.420783 0.517033 29.000000
-7.668928 -7.411697 0.517782 35.000000
-7.454104 -7.210949 0.000947 31.000000
-7.808802 -7.542215 1.059746 6.000000
-6.074412 -5.850376 1.668252 15.000000
-7.399815 -7.025624 4.827368 9.000000
-7.709898 -7.406596 0.518816 29.000000
-6.100513 -5.840211 1.670428 9.000000
-7.492300 -7.204451 0.000728 27.000000
-7.888661 -7.528028 1.064005 5.000000
-7.532023 -7.199122 0.000535 21.000000
-6.128067 -5.831254 1.673012 15.000000
-7.747350 -7.397810 0.519654 32.000000
-7.577526 -7.199181 0.000282 33.000000
-6.150599 -5.817497 1.674231 14.000000
-7.470636 -7.007395 4.845441 7.000000
-7.788389 -7.392357 0.520684 26.000000
-7.827270 -7.384680 0.521565 21.000000
-6.182380 -5.812420 1.677925 9.000000
-7.612911 -7.189424 0.000061 33.000000
-7.874203 -7.384341 0.522955 29.000000
-7.594498 -7.037869 4.897576 4.000000
-8.650064 -7.988023 4.863606 5.000000
-7.913953 -7.376921 0.523920 21.000000
-8.666742 -7.954970 4.859256 6.000000
-7.950768 -7.366639 0.524681 28.000000
-6.271475 -5.790260 1.687337 12.000000
-8.116463 -7.515325 1.078156 6.000000
-8.687351 -7.925698 4.857147 6.000000
-6.302598 -5.783998 1.690821 9.000000
-7.990476 -7.358967 0.525584 16.000000
-6.331604 -5.775571 1.693758 11.000000
-8.701056 -7.890097 4.851269 7.000000
-8.040568 -7.360523 0.527155 20.000000
-8.251013 -7.502674 1.086252 3.000000
-8.084131 -7.355754 0.528336 25.000000
-6.363547 -5.769636 1.697473 8.000000
-6.396233 -5.764227 1.701373 7.000000
-8.124025 -7.347447 0.529281 25.000000
-8.177227 -7.351076 0.530987 25.000000
-6.429618 -5.759393 1.705420 8.000000
-8.213450 -7.339080 0.531679 18.000000
-8.823016 -7.870799 1.733582 5.000000
-8.389681 -7.491543 1.094778 6.000000
-6.472587 -5.762866 1.711973 10.000000
-8.250471 -7.327547 0.532447 18.000000
-8.426389 -7.478755 1.096428 7.000000
-6.502452 -5.754370 1.715112 9.000000
-6.540415 -5.752895 1.720342 15.000000
-6.086104 -7.979174 1.243249 8.000000
-8.465322 -7.467804 1.098348 8.000000
-8.885234 -7.830489 1.736126 7.000000
-8.290477 -7.318516 0.533386 20.000000
-6.133616 -7.991574 1.247821 3.000000
-8.328165 -7.307423 0.534126 20.000000
-8.893125 -7.790031 1.732901 5.000000
-8.508668 -7.460721 1.100771 10.000000
-7.829765 -6.785810 4.898871 10.000000
-6.573198 -5.746789 1.724188 8.000000
-8.916550 -7.763219 1.732697 7.000000
-6.164920 -7.982511 1.249165 4.000000
-8.371161 -7.300734 0.535204 25.000000
-6.617133 -5.750178 1.730913 13.000000
-8.938470 -7.734957 1.732260 5.000000
-8.431617 -7.308837 0.537371 6.000000
-8.585071 -7.436689 1.104388 4.000000
-6.202389 -7.981117 1.251750 6.000000
-6.638190 -5.733379 1.731757 8.000000
-6.036064 -7.714890 0.730824 22.000000
-8.951293 -7.698892 1.730103 11.000000
-6.689712 -5.742756 1.740421 9.000000
-7.970391 -6.781999 4.947428 8.000000
-6.727857 -5.740469 1.745599 9.000000
-6.058597 -7.695933 0.730640 31.000000
-8.752928 -7.490429 1.119365 4.000000
-8.966901 -7.665497 1.728449 3.000000
-6.769051 -5.740536 1.751544 11.000000
-8.521544 -7.253141 0.538249 5.000000
-6.094701 -7.694107 0.732030 33.000000
-8.773144 -7.462126 1.118870 6.000000
-8.992956 -7.641042 1.728801 5.000000
-8.547198 -7.230614 0.538329 3.000000
-6.127213 -7.687384 0.733039 35.000000
-6.802120 -5.733362 1.755438 6.000000
-9.021297 -7.618314 1.729645 10.000000
-6.174084 -7.698437 0.735684 22.000000
-6.032991 -7.524212 0.245733 46.000000
-6.835208 -5.726041 1.759329 15.000000
-8.008485 -6.665364 4.303044 10.000000
-9.034430 -7.582749 1.727635 3.000000
-8.602596 -7.233092 0.540170 5.000000
-8.872895 -7.455155 1.125343 5.000000
-6.065605 -7.518497 0.245979 30.000000
-8.014376 -6.629389 4.295243 6.000000
-8.900630 -7.432892 1.125786 11.000000
-6.198454 -7.681387 0.735717 33.000000
-8.595948 -7.183461 0.538290 7.000000
-6.917185 -5.724261 1.771018 11.000000
-8.002270 -6.578745 4.277935 8.000000
-8.935198 -7.416260 1.127071 6.000000
-8.655128 -7.188877 0.540291 9.000000
-6.094457 -7.507995 0.246089 43.000000
-6.252936 -7.701445 0.739164 13.000000
-8.680603 -7.165926 0.540346 7.000000
-6.031512 -7.386211 1.181883 6.000000
-6.268557 -7.673285 0.738229 35.000000
-6.977621 -5.738942 1.781757 9.000000
-8.774266 -7.211337 2.819616 13.000000
-6.130319 -7.505861 0.246474 34.000000
-8.016456 -6.549841 4.274736 7.000000
-8.965970 -7.396246 1.127930 11.000000
-7.011649 -5.731514 1.785835 9.000000
-6.156741 -7.491965 0.246543 55.000000
-6.039309 -7.350313 1.179060 9.000000
-8.991347 -7.371657 1.128151 3.000000
-6.313849 -7.681305 0.740656 34.000000
-9.055923 -7.379167 1.133111 13.000000
-7.081426 -5.753123 1.798832 9.000000
-6.349002 -7.676878 0.741900 34.000000
-9.100930 -7.407586 1.717943 7.000000
-8.798875 -7.142917 2.813282 8.000000
-6.202156 -7.501158 0.247230 28.000000
-6.045606 -7.312963 1.175956 16.000000
-6.382884 -7.670796 0.742984 33.000000
-7.108638 -5.739817 1.801130 12.000000
-9.080392 -7.353776 1.133158 7.000000
-6.236153 -7.496326 0.247504 33.000000
-6.075819 -7.304677 1.177397 16.000000
-8.929559 -7.237018 0.550496 5.000000
-8.056184 -6.461333 4.263935 5.000000
-6.088886 -7.275674 1.175621 24.000000
-8.020797 -6.407037 3.654668 4.000000
-6.270225 -7.491321 0.247801 32.000000
-6.422594 -7.671428 0.744733 44.000000
-8.084398 -6.443905 4.268319 8.000000
-9.105608 -7.328876 1.133332 5.000000
-7.124011 -5.681475 1.796089 6.000000
-6.131937 -7.282314 1.179519 17.000000
-9.004991 -7.208626 0.551994 7.000000
-9.137815 -7.309416 1.134400 3.000000
-8.017323 -6.364542 3.644188 9.000000
-6.453443 -7.661151 0.745521 33.000000
-8.819119 -7.017359 3.391433 4.000000
-6.312116 -7.495306 0.248397 24.000000
-9.037575 -7.190194 0.552413 17.000000
-8.157472 -6.421828 4.285858 9.000000
-7.227984 -5.728959 1.817468 11.000000
-8.038019 -6.341500 3.644668 6.000000
-6.495163 -7.663764 0.747472 27.000000
-6.339795 -7.482381 0.248463 32.000000
-6.155122 -7.265331 1.179652 22.000000
-8.041580 -6.305028 3.637454 6.000000
-8.848563 -6.953999 3.386129 4.000000
-7.249829 -5.710829 1.818427 11.000000
-9.198043 -7.267241 1.135921 8.000000
-6.182742 -7.253586 1.180609 21.000000
-6.378445 -7.482317 0.248886 33.000000
-6.528522 -7.656346 0.748480 30.000000
-6.236856 -7.272629 1.186496 17.000000
-9.114406 -7.162231 0.553899 4.000000
-8.860489 -6.920201 3.382482 6.000000
-6.569062 -7.657104 0.750284 27.000000
-8.052444 -6.274365 3.633594 13.000000
-6.411325 -7.475235 0.249123 39.000000
-9.116298 -7.119299 0.552603 6.000000
-7.281080 -5.664567 1.817359 10.000000
-6.446896 -7.471001 0.249482 39.000000
-8.053551 -6.236117 3.625436 11.000000
-8.500729 -6.625017 1.578786 8.000000
-6.603868 -7.650837 0.751481 31.000000
-6.280830 -7.279331 1.190496 15.000000
-8.855693 -6.873387 3.372580 5.000000
-9.144801 -7.097301 0.552811 13.000000
-6.324218 -7.285109 1.194355 11.000000
-8.077626 -6.215796 3.627598 11.000000
-6.485086 -7.469667 0.249908 26.000000
-6.649120 -7.656512 0.753795 28.000000
-8.073923 -6.174239 3.617378 7.000000
-6.694407 -7.662031 0.756073 22.000000
-6.495586 -7.437348 1.221681 3.000000
-9.177151 -7.078314 0.553198 8.000000
-7.335333 -5.636156 1.821968 11.000000
-6.520637 -7.465204 0.250211 31.000000
-6.722683 -7.647853 0.756505 30.000000
-6.557549 -7.462089 0.250561 34.000000
-8.145918 -6.204367 3.081935 5.000000
-8.099000 -6.129945 3.057155 8.000000
-6.751669 -7.634261 0.757050 36.000000
-8.124691 -6.135623 3.623012 6.000000
-6.590604 -7.454265 0.250819 39.000000
-8.170383 -6.131421 3.634857 5.000000
-6.795218 -7.636960 0.759157 29.000000
-8.080026 -6.077191 3.042969 14.000000
-6.628324 -7.451537 0.251230 42.000000
-7.486823 -5.610343 1.841674 13.000000
-8.154132 -6.080836 3.619296 5.000000
-6.669329 -7.452446 0.251698 42.000000
-8.099102 -6.053409 3.043037 8.000000
-6.830776 -7.630618 0.760359 31.000000
-6.705715 -7.447977 0.252008 28.000000
-7.534371 -5.610683 1.848898 17.000000
-8.191397 -6.070300 3.627410 7.000000
-6.860346 -7.617462 0.760916 30.000000
-9.205018 -6.881254 0.547740 4.000000
-8.093503 -6.011272 3.033944 12.000000
-9.049634 -6.759356 1.093740 4.000000
-6.740218 -7.441054 0.252305 28.000000
-9.054813 -6.720718 1.091777 6.000000
-8.199140 -6.037671 3.622577 13.000000
-6.902716 -7.618165 0.762876 25.000000
-7.533154 -5.574457 1.844368 7.000000
-7.012734 -7.742674 1.290001 4.000000
-8.104736 -5.981656 3.031206 14.000000
-6.782145 -7.442122 0.252840 24.000000
-8.225772 -6.018982 3.626080 7.000000
-6.926344 -7.598034 0.762846 37.000000
-9.051033 -6.675605 1.088783 2.000000
-7.050119 -7.736881 1.292415 4.000000
-8.115865 -5.952027 3.028468 17.000000
-7.606882 -5.593592 1.857929 10.000000
-6.974091 -7.604375 0.765321 25.000000
-8.257649 -6.004162 3.631861 4.000000
-6.086696 -6.728355 4.056378 6.000000
-6.815950 -7.434227 0.253062 37.000000
-8.137671 -5.930381 3.029681 11.000000
-9.084715 -6.658354 1.090133 5.000000
-7.644295 -5.585744 1.862676 6.000000
-8.146222 -5.899112 3.026019 7.000000
-7.692040 -5.585243 1.869887 7.000000
-7.022600 -7.611243 0.767854 18.000000
-8.285684 -5.986458 3.635962 6.000000
-6.856528 -7.433560 0.253492 31.000000
-9.091640 -6.585169 0.534722 4.000000
-7.046889 -7.591478 0.767888 34.000000
-8.187372 -5.891271 3.034434 10.000000
-8.115403 -5.848632 2.482419 12.000000
-6.889105 -7.423837 0.253714 29.000000
-6.925781 -7.418369 0.254066 22.000000
-8.189596 -5.855340 3.028544 7.000000
-8.119648 -5.814464 2.478197 8.000000
-7.095626 -7.597885 0.770477 21.000000
-7.136885 -7.596128 0.772240 26.000000
-9.075086 -6.490113 0.531212 6.000000
-8.223644 -5.842300 3.034337 6.000000
-9.066320 -6.478254 1.077932 9.000000
-6.961046 -7.411349 0.254332 30.000000
-8.122921 -5.779832 2.473691 12.000000
-7.165853 -7.581154 0.772714 34.000000
-6.995629 -7.403469 0.254564 21.000000
-8.126049 -5.745251 2.469174 12.000000
-9.089658 -6.459311 0.530695 4.000000
-8.233423 -5.811977 3.031251 6.000000
-7.030281 -7.395403 0.254825 22.000000
-7.213400 -7.585550 0.775133 28.000000
-8.224307 -5.768377 3.021333 7.000000
-8.140197 -5.718472 2.468029 15.000000
-7.980109 -5.612787 1.917501 4.000000
-7.067042 -7.389345 0.255162 35.000000
-7.256236 -7.584661 0.777067 27.000000
-8.146311 -5.686073 2.464513 8.000000
-8.002662 -5.592609 1.918659 14.000000
-8.745159 -6.080501 3.786441 6.000000
-8.226804 -5.733086 3.015719 7.000000
-7.606223 -7.905693 1.351835 3.000000
-8.247246 -5.710437 3.016656 6.000000
-8.161848 -5.660382 2.463830 6.000000
-8.021105 -5.569587 1.918838 11.000000
-7.306696 -7.591528 0.779751 24.000000
-7.119033 -7.399022 0.255950 17.000000
-8.952353 -6.187329 1.589876 8.000000
-8.059652 -5.560492 1.923748 4.000000
-7.145390 -7.381898 0.255910 26.000000
-8.742159 -6.000437 3.768976 4.000000
-8.174883 -5.633031 2.462408 7.000000
-7.340579 -7.580989 0.780710 19.000000
-8.255769 -5.679601 3.013278 6.000000
-8.771968 -5.982005 3.773757 3.000000
-7.383555 -7.579565 0.782616 15.000000
-8.073965 -5.534501 1.922979 6.000000
-7.191277 -7.384703 0.256503 26.000000
-8.200672 -5.614393 2.464829 10.000000
-7.429425 -7.580761 0.784829 28.000000
-8.983814 -6.129288 1.588466 6.000000
-8.089035 -5.508984 1.922425 6.000000
-7.230995 -7.380830 0.256924 26.000000
-8.250548 -5.575682 2.469209 8.000000
-7.466912 -7.573274 0.786157 20.000000
-8.735339 -5.879914 3.742353 8.000000
-7.263684 -7.369711 0.257094 30.000000
-8.112927 -5.489539 1.923928 8.000000
-8.271362 -5.553518 2.470174 9.000000
-8.140021 -5.472214 1.926177 9.000000
-7.302684 -7.364871 0.257444 23.000000
-7.505105 -7.566355 0.787540 19.000000
-8.161386 -5.450933 1.927108 8.000000
-8.312323 -5.544742 2.477112 11.000000
-7.549685 -7.565610 0.789572 17.000000
-7.352333 -7.370461 0.258129 14.000000
-7.587313 -7.557577 0.790925 39.000000
-9.013315 -5.999192 1.045815 6.000000
-8.176188 -5.425173 1.926548 10.000000
-8.338771 -5.526050 2.479788 7.000000
-7.375935 -7.349657 0.258043 19.000000
-7.800241 -7.725635 1.351501 4.000000
-7.408652 -7.337977 0.258202 17.000000
-6.126803 -4.015190 2.609233 4.000000
-8.201524 -5.406464 1.928423 10.000000
-7.629867 -7.554352 0.792735 36.000000
-8.225996 -5.387118 1.930103 12.000000
-7.444923 -7.329678 0.258463 25.000000
-6.160232 -4.010617 2.618064 5.000000
-9.013494 -5.921271 1.041319 4.000000
-7.669621 -7.548144 0.794258 19.000000
-8.180608 -5.366429 1.430593 13.000000
-9.007109 -5.878299 1.038375 6.000000
-8.243030 -5.362841 1.930077 9.000000
-6.855227 -6.829271 4.919117 5.000000
-7.484078 -7.324016 0.258815 24.000000
-6.217433 -4.021252 2.636889 9.000000
-8.192594 -5.339054 1.429669 17.000000
-7.710129 -7.542454 0.795854 19.000000
-7.930257 -7.713650 1.361154 5.000000
-8.193717 -5.304616 1.426924 22.000000
-6.142363 -3.936614 3.012465 6.000000
-6.224821 -3.999397 2.634747 9.000000
-7.520439 -7.315360 0.259101 20.000000
-7.747136 -7.533074 0.797119 23.000000
-8.275676 -5.348605 1.933684 5.000000
-6.146453 -3.913089 3.008516 14.000000
-6.303621 -4.023267 2.662565 7.000000
-8.300037 -5.328937 1.935373 7.000000
-7.559665 -7.309354 0.259456 29.000000
-8.992173 -5.791496 1.032337 3.000000
-7.781981 -7.521482 0.798154 27.000000
-8.205508 -5.277213 1.426007 12.000000
-7.599605 -7.303905 0.259807 36.000000
-7.826856 -7.519462 0.800152 26.000000
-6.365095 -4.035608 2.683034 8.000000
-6.153570 -3.891587 3.006067 8.000000
-8.212181 -5.246626 1.424214 18.000000
-8.987750 -5.750447 1.029656 3.000000
-7.641777 -7.300330 0.260236 23.000000
-9.046541 -5.755274 0.507705 8.000000
-6.422726 -4.045076 2.701848 13.000000
-8.222103 -5.218143 1.423005 13.000000
-7.868931 -7.514458 0.801882 30.000000
-8.326215 -5.275159 1.933588 5.000000
-6.160623 -3.870055 3.003630 7.000000
-8.081470 -7.719870 1.374223 8.000000
-8.303496 -5.241848 0.949611 5.000000
-6.174677 -3.852901 3.004626 5.000000
-7.696356 -7.308236 0.261052 16.000000
-7.915425 -7.513351 0.804058 25.000000
-6.466106 -4.045189 2.714683 10.000000
-8.231955 -5.189607 1.421819 22.000000
-7.951097 -7.501768 0.805168 27.000000
-8.221443 -5.155366 0.938601 32.000000
-9.034528 -5.671359 0.504837 5.000000
-7.737234 -7.302843 0.261454 17.000000
-8.417019 -5.261788 1.946672 7.000000
-6.542366 -4.065511 2.741163 7.000000
-6.018599 -5.654780 1.859473 9.000000
-8.249567 -5.138521 0.939754 8.000000
-6.227025 -3.833568 3.018334 5.000000
-7.769330 -7.289128 0.261550 25.000000
-8.266432 -5.142010 1.421942 12.000000
-8.744020 -5.413047 3.088108 3.000000
-7.993246 -7.496252 0.806863 22.000000
-6.609954 -4.080016 2.763942 7.000000
-6.674491 -4.092147 2.785401 3.000000
-7.805101 -7.278664 0.261772 23.000000
-8.239598 -5.097924 0.936735 14.000000
-8.039845 -7.494597 0.809002 21.000000
-6.251222 -3.822510 3.024236 8.000000
-6.048460 -5.648620 1.863234 14.000000
-8.291985 -5.123336 1.423416 9.000000
-8.241366 -5.064683 0.935055 15.000000
-9.014725 -5.546009 0.500441 6.000000
-6.085529 -5.648932 1.869187 13.000000
-8.086559 -7.492676 0.811175 17.000000
-7.844600 -7.271396 0.262134 28.000000
-8.322595 -5.107608 1.425773 17.000000
-8.685238 -5.320997 1.996109 5.000000
-8.792794 -5.379563 2.551676 6.000000
-8.755946 -5.311262 3.074600 5.000000
-8.291356 -7.638352 1.384859 3.000000
-8.237056 -5.027858 0.932714 12.000000
-8.120117 -7.478388 0.812066 23.000000
-8.729780 -5.312129 2.002350 4.000000
-8.351488 -5.090724 1.427837 14.000000
-6.110452 -5.637826 1.871447 15.000000
-7.892199 -7.271422 0.262721 20.000000
-8.165361 -7.474816 0.814035 32.000000
-8.376076 -5.071222 1.429145 7.000000
-7.928002 -7.260491 0.262916 23.000000
-6.822062 -4.098173 2.830485 6.000000
-8.254677 -5.004611 0.932747 17.000000
-6.477882 -5.932968 1.528334 17.000000
-6.148981 -5.639216 1.877787 14.000000
-8.256891 -4.972040 0.931110 24.000000
-8.217306 -7.477074 0.816642 19.000000
-8.345886 -5.030755 0.462632 6.000000
-6.417871 -3.818825 3.081226 4.000000
-6.185416 -5.638445 1.883479 12.000000
-6.527778 -5.942652 1.535575 11.000000
-8.411652 -5.058247 1.432297 8.000000
-8.789401 -5.276176 2.008094 4.000000
-7.968255 -7.253440 0.263243 29.000000
-6.217626 -5.633499 1.887916 14.000000
-6.438186 -3.804586 3.085257 10.000000
-6.492357 -5.874615 1.523166 23.000000
-8.753645 -7.967803 3.919340 5.000000
-8.261292 -7.471631 0.818533 17.000000
-8.454932 -5.049577 1.436780 5.000000
-8.010853 -7.248135 0.263692 23.000000
-8.271859 -4.947080 0.930926 9.000000
-8.266759 -4.949034 0.457596 18.000000
-6.254921 -5.633005 1.893854 11.000000
-8.308261 -7.468685 0.820685 15.000000
-8.493114 -5.037688 1.440395 9.000000
-6.490273 -5.837196 1.518486 33.000000
-7.031232 -4.137742 2.900514 5.000000
-8.283310 -4.920066 0.930352 17.000000
-8.272181 -4.918455 0.456910 21.000000
-6.447296 -3.783717 3.083963 10.000000
-8.058667 -7.247344 0.264270 22.000000
-8.108711 -7.248404 0.264860 19.000000
-8.587529 -5.058885 1.453297 5.000000
-6.300220 -5.639560 1.902134 11.000000
-8.311770 -4.903232 0.931590 11.000000
-8.276583 -4.887456 0.456132 17.000000
-6.449120 -3.758693 3.079221 13.000000
-6.522502 -5.830788 1.521679 28.000000
-8.766638 -5.138409 3.049710 10.000000
-8.345546 -7.456958 0.821868 19.000000
-7.068931 -4.131325 2.910619 4.000000
-8.747071 -5.117579 1.476948 8.000000
-8.755620 -5.096550 3.040314 6.000000
-6.323010 -5.625768 1.903700 8.000000
-7.110733 -4.127084 2.922386 9.000000
-8.337631 -4.884755 0.932549 16.000000
-8.283460 -4.857988 0.455489 25.000000
-8.416397 -7.474883 0.826221 5.000000
-6.486876 -3.754572 3.091543 8.000000
-8.146883 -7.238596 0.265110 21.000000
-8.438915 -7.449439 0.826054 4.000000
-7.220191 -6.376787 1.672325 14.000000
-8.285979 -4.825917 0.454680 25.000000
-6.507056 -3.740027 3.095564 12.000000
-8.369535 -4.869583 0.934214 7.000000
-8.875678 -5.147480 2.008650 5.000000
-8.768477 -5.094624 1.477734 5.000000
-7.267098 -4.199732 2.522710 5.000000
-8.191900 -7.234493 0.265607 23.000000
-6.353148 -5.618288 1.907475 15.000000
-6.533632 -3.729073 3.102615 10.000000
-8.787677 -5.053656 2.507702 4.000000
-7.202709 -4.122491 2.949331 9.000000
-8.448605 -7.412749 0.824684 5.000000
-8.297023 -4.798888 0.454307 25.000000
-8.391940 -4.848786 0.934850 14.000000
-8.236959 -7.230190 0.266097 20.000000
-7.253491 -6.367316 1.675375 23.000000
-6.387692 -5.614550 1.912544 14.000000
-8.292534 -7.234964 0.266829 20.000000
-8.695948 -7.585642 1.415007 6.000000
-7.281540 -6.353237 1.677199 14.000000
-6.523960 -3.697505 3.092564 13.000000
-6.422954 -5.611361 1.917788 14.000000
-8.449642 -4.848314 0.939243 8.000000
-8.308790 -4.772414 0.453927 15.000000
-8.459576 -7.377462 0.823399 12.000000
-8.890395 -5.084600 2.004568 8.000000
-8.324807 -4.748397 0.453762 23.000000
-8.478007 -4.830771 0.940470 15.000000
-8.491508 -7.360480 0.824079 5.000000
-6.453090 -5.603535 1.921510 8.000000
-8.322527 -7.217202 0.266832 24.000000
-7.261154 -4.098072 2.962536 6.000000
-8.875796 -5.040841 1.997662 5.000000
-7.304352 -6.334532 1.677840 20.000000
-8.877813 -5.051437 1.487453 6.000000
-6.577837 -3.701930 3.112460 9.000000
-6.497326 -5.607641 1.929381 9.000000
-8.366190 -7.211001 0.267264 23.000000
-8.558371 -4.842470 0.947312 7.000000
-8.519706 -7.340041 0.824455 7.000000
-8.795649 -7.579779 1.423153 4.000000
-8.851656 -5.001231 1.480445 3.000000
-8.343410 -4.725731 0.453772 24.000000
-7.333894 -6.321474 1.680036 13.000000
-8.402314 -7.198081 0.267492 18.000000
-7.355950 -6.301866 1.680557 17.000000
-7.349290 -4.089479 2.987789 5.000000
-8.537266 -7.310397 0.823856 9.000000
-8.740079 -7.486007 1.410579 5.000000
-8.691829 -4.883486 0.959820 3.000000
-6.537213 -5.607703 1.935959 11.000000
-8.375890 -4.710823 0.454494 11.000000
-8.838737 -4.914461 1.978777 5.000000
-8.769938 -4.892734 0.966343 4.000000
-8.404828 -4.693873 0.455000 18.000000
-7.902454 -6.812883 4.654310 9.000000
-8.790831 -4.880527 2.486273 5.000000
-7.374905 -6.279682 1.680369 10.000000
-8.589607 -7.310521 0.826447 6.000000
-6.063305 -3.329429 3.265529 11.000000
-6.569689 -5.601290 1.940338 11.000000
-8.730080 -7.431972 1.405231 9.000000
-8.458167 -7.201925 0.268226 7.000000
-6.076536 -3.312897 3.267044 9.000000
-8.640476 -4.753887 2.958258 5.000000
-7.454889 -4.089636 3.019940 4.000000
-6.606634 -5.598545 1.945999 10.000000
-7.910542 -6.778348 4.646780 7.000000
-8.430226 -4.674882 0.455310 16.000000
-7.409571 -6.270843 1.683692 5.000000
-8.775889 -4.861506 0.965144 6.000000
-8.881804 -4.877954 1.474661 8.000000
-8.524261 -7.170183 0.268416 5.000000
-6.089738 -3.296273 3.268583 14.000000
-7.487936 -4.078416 3.028053 8.000000
-6.640673 -5.593065 1.950820 7.000000
-8.446874 -4.650902 0.455214 15.000000
-8.616978 -4.707106 2.945191 4.000000
-6.751032 -3.666413 3.166527 9.000000
-7.922701 -6.747326 4.641721 6.000000
-8.476625 -4.634014 0.455802 13.000000
-8.865320 -4.841421 0.971095 7.000000
-7.917335 -6.701485 4.626541 6.000000
-6.773526 -3.652146 3.171673 17.000000
-8.946238 -7.477539 1.427927 7.000000
-8.634569 -4.682873 2.946127 6.000000
-6.670277 -5.583635 1.954364 13.000000
-6.114069 -3.285572 3.276087 16.000000
-7.529294 -4.071484 3.039512 8.000000
-8.809111 -4.786875 2.478423 6.000000
-6.783745 -3.631260 3.171111 10.000000
-8.807296 -4.751520 2.473666 5.000000
-6.698351 -5.572868 1.957448 11.000000
-8.895608 -4.823230 0.972520 6.000000
-8.665570 -4.665906 2.951593 8.000000
-8.576529 -7.126305 0.268282 5.000000
-6.113625 -3.261565 3.270400 13.000000
-7.550723 -4.053668 3.042964 7.000000
-8.515100 -4.621808 0.456795 9.000000
-8.869652 -7.366434 0.843231 4.000000
-6.728637 -5.563901 1.961146 9.000000
-9.030145 -7.455781 1.433510 7.000000
-8.929431 -7.370856 0.846407 11.000000
-8.744769 -7.246134 3.141060 5.000000
-8.563210 -4.614692 0.458228 19.000000
-8.915309 -4.799300 0.972791 3.000000
-7.591225 -4.046032 3.054026 10.000000
-6.139465 -3.251641 3.278703 11.000000
-6.810217 -3.619095 3.178095 7.000000
-8.815331 -4.694717 1.953042 7.000000
-8.929718 -4.772411 0.972544 6.000000
-7.969462 -6.622582 4.621047 5.000000
-6.830970 -3.603725 3.182455 10.000000
-8.657061 -7.105645 0.268843 13.000000
-8.966239 -7.355937 0.847517 9.000000
-7.605939 -4.024444 3.054815 5.000000
-6.158108 -3.237747 3.283208 9.000000
-9.067160 -7.440498 1.435544 7.000000
-6.758970 -5.554752 1.964875 11.000000
-8.751741 -7.207466 3.135549 5.000000
-6.781023 -5.538635 1.966248 9.000000
-9.051889 -7.382330 1.429521 3.000000
-7.648157 -4.017244 3.066597 5.000000
-8.710981 -7.106026 0.269541 9.000000
-8.845002 -4.685530 1.455815 3.000000
-8.742556 -4.643631 0.465295 6.000000
-8.752627 -7.163882 3.127954 5.000000
-8.939677 -4.743091 0.971865 6.000000
-8.998447 -7.337028 0.848238 11.000000
-6.876297 -3.601116 3.198204 15.000000
-8.813863 -4.659801 1.949421 6.000000
-9.018191 -7.307976 0.847812 9.000000
-8.852960 -4.655604 1.454592 9.000000
-8.767282 -7.108068 0.270277 6.000000
-8.011613 -6.576037 4.621907 6.000000
-6.819695 -5.536001 1.972361 11.000000
-7.956929 -6.506034 3.979492 8.000000
-6.878973 -3.576072 3.194234 14.000000
-8.765323 -4.621915 0.465499 15.000000
-6.148723 -3.185475 3.267610 6.000000
-7.740157 -4.006222 3.093074 4.000000
-8.795744 -7.110995 3.127490 5.000000
-9.091559 -7.323929 1.428326 4.000000
-6.153512 -3.164465 3.264872 6.000000
-8.863415 -4.627118 1.453750 8.000000
-8.863355 -7.182884 3.773983 4.000000
-8.812775 -4.613156 0.466881 8.000000
-6.860650 -5.535079 1.979086 12.000000
-7.969316 -6.476163 3.975668 6.000000
-9.054097 -7.292083 0.848812 6.000000
-8.019437 -6.542060 4.614777 8.000000
-8.825133 -4.564162 1.942024 4.000000
-6.193707 -3.161570 3.280830 6.000000
-9.108146 -7.292175 1.427246 4.000000
-8.920264 -4.630003 0.964603 3.000000
-7.958379 -6.427488 3.960361 5.000000
-8.820386 -4.583380 0.466315 7.000000
-6.897107 -5.530274 1.984524 8.000000
-8.144828 -4.196859 2.748039 8.000000
-9.081444 -7.269156 0.849056 5.000000
-8.736620 -4.511205 2.429400 8.000000
-8.864123 -4.593570 1.451371 9.000000
-7.773209 -3.993670 3.101153 4.000000
-8.066072 -6.499252 4.618447 5.000000
-7.981470 -6.406321 3.961989 7.000000
-8.817057 -4.526264 1.937080 6.000000
-8.914721 -4.593006 0.962353 5.000000
-8.842146 -4.560856 0.466494 7.000000
-6.942043 -5.531931 1.992380 7.000000
-8.156650 -4.171793 2.747558 8.000000
-8.870033 -4.562700 1.449888 4.000000
-7.797043 -3.976166 3.105618 6.000000
-8.850505 -4.531421 0.466010 12.000000
-8.883762 -4.535906 1.449664 9.000000
-6.993165 -5.538227 2.001956 4.000000
-8.090033 -6.478274 4.620701 6.000000
-8.975300 -7.099267 0.272676 14.000000
-9.119660 -7.209866 0.848165 8.000000
-7.997201 -6.379268 3.960014 14.000000
-7.814106 -3.955156 3.107416 14.000000
-8.740757 -4.413540 2.418729 5.000000
-8.804786 -4.453065 1.928075 8.000000
-8.749325 -6.900430 3.080593 16.000000
-9.020947 -7.091388 0.273069 6.000000
-7.034369 -5.536478 2.008679 7.000000
-6.972891 -3.492284 3.211829 6.000000
-7.862263 -3.949834 3.121464 4.000000
-8.247629 -4.155771 2.769043 8.000000
-8.864955 -4.505226 0.465784 9.000000
-8.751147 -6.859163 3.073745 12.000000
-7.027348 -3.493114 3.231697 7.000000
-8.830453 -4.432699 1.930464 7.000000
-8.022446 -6.320566 3.953106 7.000000
-7.070253 -5.530305 2.013895 7.000000
-9.041432 -7.063583 0.272803 11.000000
-9.124337 -7.124752 0.844227 6.000000
-8.260150 -4.130904 2.768801 6.000000
-7.864050 -3.921071 3.117247 5.000000
-8.886471 -4.482570 0.465914 5.000000
-7.112368 -5.528711 2.020869 8.000000
-6.958250 -3.432521 3.195167 8.000000
-7.860686 -3.889764 3.111069 10.000000
-9.137901 -7.091067 0.843318 5.000000
-8.707269 -4.330863 2.401871 10.000000
-8.015895 -6.258829 3.365509 9.000000
-8.851775 -4.419127 1.437349 4.000000
-8.850804 -4.431117 0.463298 12.000000
-8.288931 -4.114045 2.774004 6.000000
-8.906176 -4.420002 0.953199 4.000000
-8.814839 -4.358384 1.920944 8.000000
-8.093023 -6.297184 3.968553 7.000000
-8.842903 -4.381381 1.433607 3.000000
-8.353797 -4.114846 2.791175 8.000000
-9.093344 -7.016214 0.272644 10.000000
-7.147589 -5.521532 2.025900 18.000000
-8.903470 -4.423957 0.464990 5.000000
-8.775726 -6.793181 3.067533 8.000000
-8.033314 -6.233414 3.364707 8.000000
-8.372222 -4.092607 2.792924 5.000000
-8.697528 -4.260715 2.391669 5.000000
-8.049107 -6.206856 3.363241 5.000000
-7.173498 -5.507112 2.028301 8.000000
-9.125501 -6.997322 0.272688 13.000000
-7.931578 -3.865418 3.129244 8.000000
-6.573606 -3.193288 3.010404 8.000000
-8.889956 -4.378633 0.949890 6.000000
-8.155384 -6.267075 3.979951 7.000000
-6.544893 -3.154977 2.992785 4.000000
-8.886969 -4.343992 0.947950 9.000000
-9.142492 -6.966813 0.272317 5.000000
-7.221103 -5.509192 2.036738 9.000000
-8.878729 -4.345237 0.461977 8.000000
-7.922854 -3.831660 3.121027 11.000000
-8.046699 -6.166417 3.354267 11.000000
-8.412999 -4.081208 2.802061 8.000000
-8.054004 -6.133438 3.349406 9.000000
-8.765522 -4.235746 1.901288 5.000000
-6.432975 -3.066324 3.359972 3.000000
-6.613702 -3.163575 3.019505 9.000000
-8.511679 -4.097387 2.830330 6.000000
-8.201051 -6.262788 3.992701 8.000000
-8.839379 -4.280532 1.426092 4.000000
-8.881219 -4.308006 0.945792 6.000000
-7.252506 -5.498564 2.040684 12.000000
-6.598188 -3.131665 3.007981 10.000000
-8.823708 -4.240097 1.421361 6.000000
-8.421412 -6.336605 1.821739 5.000000
-7.304960 -5.503669 2.050458 4.000000
-8.752606 -4.196939 1.895584 9.000000
-8.070268 -6.107361 3.348285 9.000000
-8.870843 -4.269944 0.943167 8.000000
-8.894159 -4.253515 0.460141 5.000000
-8.845014 -4.224742 0.938939 5.000000
-7.323867 -5.483396 2.050907 10.000000
-7.525048 -3.555265 2.952053 6.000000
-8.561435 -4.057878 2.838119 6.000000
-8.101702 -6.054645 3.345650 9.000000
-7.523810 -3.526977 2.947176 6.000000
-8.845493 -4.185190 1.420267 8.000000
-7.370909 -5.484053 2.059124 14.000000
-8.550238 -4.021054 2.830170 6.000000
-8.060825 -6.009600 2.780174 6.000000
-8.903275 -4.225016 0.459696 6.000000
-6.665653 -3.114607 3.029542 7.000000
-8.689721 -4.095559 2.371221 7.000000
-8.744897 -4.128625 1.888067 5.000000
-8.851372 -4.195115 0.938023 8.000000
-8.068122 -5.977191 2.776287 9.000000
-9.033210 -6.667253 0.817699 6.000000
-8.677434 -4.057769 2.364357 5.000000
-8.130678 -6.038074 3.349831 7.000000
-8.838751 -4.156506 0.935215 4.000000
-7.543872 -3.508617 2.950636 7.000000
-7.407075 -5.476285 2.064354 13.000000
-8.855395 -4.157206 1.419618 5.000000
-8.759998 -4.103455 1.888409 5.000000
-8.912341 -4.196425 0.459295 12.000000
-8.854446 -4.124170 1.417286 4.000000
-8.158105 -6.020247 3.353392 6.000000
-8.074524 -5.944212 2.772141 5.000000
-8.688793 -4.031128 2.363903 6.000000
-8.909555 -4.162306 0.458337 3.000000
-8.751883 -4.067451 1.883846 5.000000
-7.341050 -3.376675 3.324783 16.000000
-9.050065 -6.637589 0.817214 4.000000
-7.456645 -5.478167 2.073258 5.000000
-8.828691 -4.119267 0.932690 3.000000
-7.657236 -3.533280 2.990284 9.000000
-6.607157 -3.027822 3.425300 12.000000
-6.647623 -3.022165 3.441224 22.000000
-8.180086 -5.998459 3.354718 7.000000
-8.693857 -4.001698 2.361739 5.000000
-7.380710 -3.368013 3.337805 17.000000
-9.041764 -6.589758 0.814511 6.000000
-7.503089 -5.477571 2.081251 10.000000
-8.806696 -4.076768 0.928918 6.000000
-8.738241 -4.029152 1.878100 7.000000
-7.695328 -3.522781 3.000672 8.000000
-8.557654 -3.930274 2.820081 4.000000
-8.084641 -5.914177 2.769267 13.000000
-8.849743 -4.089602 1.414341 9.000000
-6.667488 -3.006962 3.446543 17.000000
-8.719991 -3.988913 1.871419 4.000000
-8.065793 -5.863139 2.756625 17.000000
-9.161016 -6.638181 0.266702 6.000000
-8.457853 -3.853554 2.783398 4.000000
-9.055936 -6.559665 1.365494 4.000000
-8.843119 -4.054258 1.411124 3.000000
-8.193572 -5.970425 3.352619 6.000000
-8.885377 -4.086035 0.455466 8.000000
-7.421233 -3.359513 3.351209 9.000000
-9.036501 -6.544362 0.812096 4.000000
-7.553557 -5.479598 2.090329 8.000000
-7.614432 -5.488750 2.102236 5.000000
-7.438990 -3.340507 3.354418 10.000000
-8.073323 -5.831424 2.752994 9.000000
-8.827374 -4.014841 1.406530 7.000000
-8.803738 -6.337780 1.872650 6.000000
-8.220073 -5.951789 3.355851 7.000000
-8.373405 -3.784536 2.751870 10.000000
-8.804802 -4.011623 0.925750 4.000000
-8.118958 -3.657805 3.155563 8.000000
-8.076824 -5.796896 2.748047 8.000000
-7.663530 -5.489048 2.110908 8.000000
-8.389201 -3.761197 2.753075 18.000000
-8.136040 -3.635965 3.157676 5.000000
-7.459240 -3.322548 3.358766 7.000000
-8.786914 -3.971488 0.922484 9.000000
-8.272764 -5.951904 3.369694 6.000000
-8.383017 -3.728104 2.747136 22.000000
-8.795181 -3.943376 0.921854 4.000000
-7.483666 -3.306418 3.364977 15.000000
-9.015585 -6.405726 0.804574 6.000000
-8.867202 -3.980928 0.452147 9.000000
-7.715848 -5.491413 2.120409 8.000000
-8.632464 -3.847846 2.331610 10.000000
-8.095076 -5.773094 2.748087 9.000000
-8.256336 -3.630181 3.195023 7.000000
-8.792446 -3.910383 0.920125 7.000000
-8.592519 -3.799009 2.317612 7.000000
-8.410914 -3.710179 2.752296 14.000000
-8.863605 -3.947286 0.451155 7.000000
-8.721723 -3.863143 1.860819 6.000000
-8.109326 -5.746439 2.746809 15.000000
-9.027307 -6.374371 1.348910 4.000000
-8.372892 -5.947592 3.395127 6.000000
-7.800779 -5.481286 2.134024 10.000000
-8.586165 -3.765273 2.312629 10.000000
-8.785045 -3.875417 0.917944 13.000000
-8.269025 -3.606017 3.195452 11.000000
-8.831954 -6.197743 1.861832 5.000000
-7.568089 -3.289296 3.393297 4.000000
-8.461487 -5.972165 3.423288 6.000000
-8.419466 -3.683644 2.751204 16.000000
-8.117189 -5.715295 2.743426 5.000000
-8.144724 -5.697933 2.746671 6.000000
-8.768949 -3.829737 1.387039 4.000000
-8.530107 -5.982027 3.443364 8.000000
-8.730493 -3.804154 1.857331 9.000000
-8.317152 -3.597133 3.209509 23.000000
-8.435864 -3.660483 2.752697 11.000000
-8.793953 -3.847676 0.917445 18.000000
-9.096642 -6.303341 0.259995 6.000000
-8.536523 -3.682207 2.292965 10.000000
-8.882355 -3.859790 0.449639 7.000000
-7.661951 -3.275246 3.425787 7.000000
-8.564523 -5.967699 3.449673 13.000000
-8.170605 -5.679422 2.749348 11.000000
-8.974810 -6.215346 0.793666 4.000000
-8.320203 -3.568703 3.206275 16.000000
-8.462741 -3.641876 2.757565 16.000000
-8.789042 -3.814033 0.915528 16.000000
-7.886695 -5.470854 2.147866 3.000000
-8.519553 -3.635955 2.772095 10.000000
-8.882889 -3.828286 0.448852 7.000000
-8.778515 -3.778100 0.913054 11.000000
-7.695703 -3.262275 3.436144 18.000000
-8.501155 -3.636595 2.280387 12.000000
-8.336176 -3.545842 3.208011 11.000000
-8.190886 -5.656979 2.750168 12.000000
-7.920841 -5.459269 2.152386 13.000000
-8.587207 -5.945117 3.451297 10.000000
-8.727998 -3.740655 1.851521 6.000000
-8.212723 -5.635513 2.751543 15.000000
-8.645870 -5.947173 3.467291 7.000000
-8.955941 -6.123812 1.323675 5.000000
-8.788619 -3.744104 1.384020 3.000000
-8.543762 -3.615842 2.776126 18.000000
-8.879664 -3.795195 0.447920 9.000000
-8.356445 -3.524706 3.211430 12.000000
-8.779778 -3.747306 0.911802 8.000000
-9.000531 -6.153268 0.792201 4.000000
-8.830416 -6.039023 1.845321 4.000000
-7.694475 -3.234367 3.431016 12.000000
-8.478127 -3.596502 2.271152 22.000000
-8.189705 -5.564673 1.709838 11.000000
-8.373191 -3.501999 3.213535 12.000000
-8.559096 -3.591878 2.777325 12.000000
-8.761691 -3.708357 0.908635 14.000000
-9.014095 -6.122709 0.791567 9.000000
-7.742707 -3.227150 3.447834 10.000000
-8.025540 -5.460237 2.171191 5.000000
-8.720573 -3.675309 1.844831 5.000000
-8.778904 -3.708685 1.380563 9.000000
-8.272774 -5.640020 2.765602 5.000000
-8.456733 -3.557311 2.262406 14.000000
-8.186017 -5.526174 1.705431 19.000000
-7.743906 -3.200248 3.443830 9.000000
-8.383761 -3.476735 3.213293 12.000000
-8.595590 -3.576746 2.785323 13.000000
-8.464749 -3.530677 2.261452 9.000000
-8.090525 -5.468826 2.183916 9.000000
-8.719844 -3.644079 1.842128 8.000000
-9.040754 -6.101097 0.792016 4.000000
-8.777253 -3.676849 1.378344 5.000000
-8.740675 -3.668437 0.905168 18.000000
-7.792111 -3.192724 3.460603 9.000000
-8.182149 -5.487782 1.701004 10.000000
-8.377905 -5.637990 2.788622 6.000000
-8.776388 -3.645473 1.376245 7.000000
-8.469976 -3.502949 2.259766 17.000000
-8.153989 -5.476018 2.196183 12.000000
-8.883083 -3.702070 0.445739 6.000000
-8.745219 -3.639435 0.904252 17.000000
-8.955677 -6.005527 1.315019 4.000000
-8.391628 -3.450397 3.212035 12.000000
-8.177335 -5.448868 1.696438 15.000000
-8.934073 -5.952068 1.309105 4.000000
-7.823205 -3.177917 3.469837 10.000000
-8.774521 -3.613707 1.374035 9.000000
-8.671724 -3.562706 1.827096 5.000000
-8.734966 -3.604306 0.901896 16.000000
-8.475131 -3.475172 2.258109 16.000000
-9.007561 -6.000067 0.785672 6.000000
-8.615293 -3.524145 2.784244 8.000000
-8.241469 -5.462837 2.210223 7.000000
-8.895954 -3.644612 0.444834 6.000000
-8.651532 -3.523893 1.820466 5.000000
-8.724596 -3.569237 0.899563 21.000000
-8.609942 -3.491611 2.778907 5.000000
-8.488309 -3.450655 2.258601 15.000000
-8.413278 -3.400016 3.211917 6.000000
-8.775308 -3.583073 1.372267 5.000000
-8.176494 -5.412720 1.692730 6.000000
-8.612462 -3.462412 2.776100 5.000000
-8.180421 -5.379923 1.689998 16.000000
-8.504100 -3.427229 2.259777 23.000000
-8.767709 -3.549170 1.369209 9.000000
-6.018824 -3.993062 2.797706 7.000000
-8.710382 -3.532812 0.896835 19.000000
-8.894832 -3.612895 0.444021 8.000000
-8.258737 -5.438503 2.210214 5.000000
-8.298792 -5.429117 2.216218 15.000000
-6.048786 -3.986736 2.805779 12.000000
-8.601514 -3.427941 2.769009 6.000000
-8.767319 -3.518335 1.367250 6.000000
-8.973684 -5.861097 0.777652 4.000000
-8.889874 -3.579763 0.443014 6.000000
-8.566872 -3.429335 1.798089 12.000000
-8.705249 -3.500262 0.895002 10.000000
-8.189154 -5.350423 1.688248 11.000000
-8.524324 -3.405581 2.262113 17.000000
-8.227974 -5.339633 1.197857 5.000000
-8.552639 -3.387024 2.266600 19.000000
-8.881104 -3.545169 0.441861 6.000000
-8.195327 -5.319270 1.686018 7.000000
-8.732388 -3.480648 0.896402 7.000000
-8.518763 -3.380290 1.785786 12.000000
-8.438563 -3.321725 3.209177 10.000000
-6.159101 -4.021331 2.436088 5.000000
-8.973715 -5.822621 0.775950 8.000000
-8.748443 -3.480169 1.362512 6.000000
-7.951688 -3.118829 3.508628 8.000000
-8.221302 -5.300908 1.687827 10.000000
-8.746012 -3.448648 1.360323 6.000000
-8.422511 -5.437716 2.239716 5.000000
-8.500609 -3.343396 1.779726 16.000000
-8.574805 -3.357416 2.753479 10.000000
-8.573700 -3.365441 2.269218 17.000000
-7.963716 -3.095797 3.509556 9.000000
-8.753950 -3.458662 0.897274 4.000000
-8.975302 -5.785234 0.774415 8.000000
-6.155297 -3.992370 2.429710 16.000000
-8.205658 -5.290020 1.192223 17.000000
-8.885234 -3.515767 0.441332 5.000000
-6.215238 -4.042767 2.870745 6.000000
-8.207357 -5.256134 1.190006 15.000000
-8.880888 -3.483104 0.440408 10.000000
-8.598325 -3.345189 2.272771 11.000000
-8.735544 -5.614156 2.865154 4.000000
-8.011953 -3.086730 3.526348 14.000000
-6.173735 -3.977890 2.432049 11.000000
-8.988496 -5.755438 0.773840 9.000000
-8.500603 -3.313800 1.777424 13.000000
-8.737440 -3.421695 0.894381 9.000000
-8.436566 -3.262181 3.200444 7.000000
-8.441371 -5.413851 2.240148 8.000000
-8.700125 -3.400237 1.351538 7.000000
-8.220661 -5.265440 1.684274 5.000000
-8.574211 -3.327350 2.749838 4.000000
-8.271413 -5.262902 1.691045 7.000000
-8.499551 -3.283952 1.774894 17.000000
-6.382565 -4.096978 2.935666 4.000000
-9.007989 -5.733392 0.248925 6.000000
-8.210558 -5.223419 1.187983 15.000000
-8.855908 -3.442601 0.438505 4.000000
-8.572594 -3.297048 2.745872 3.000000
-8.576250 -5.463964 2.270920 6.000000
-8.761597 -3.400798 0.895476 7.000000
-8.611096 -3.320344 2.273207 8.000000
-7.997923 -3.053670 3.515890 16.000000
-6.178505 -3.954680 2.429059 16.000000
-8.843822 -3.407299 0.437208 5.000000
-8.501154 -3.255179 1.772937 25.000000
-8.470276 -3.216677 3.205216 6.000000
-8.977387 -5.672456 0.769556 5.000000
-6.226502 -3.958994 2.442899 10.000000
-8.768986 -3.373331 0.894930 6.000000
-8.213644 -5.190719 1.185969 15.000000
-6.453958 -4.115370 2.962373 7.000000
-8.672361 -3.329332 1.343708 13.000000
-8.035721 -3.040386 3.528113 13.000000
-8.563710 -3.264037 2.739641 7.000000
-8.304730 -5.249032 1.694310 14.000000
-9.018407 -5.701975 0.248496 5.000000
-8.513712 -3.230522 1.773289 20.000000
-8.779119 -3.346823 0.894711 6.000000
-6.472714 -4.099836 2.965093 10.000000
-8.339765 -5.235970 1.697962 10.000000
-8.214143 -5.156378 1.183653 16.000000
-9.012698 -5.660352 0.247744 5.000000
-8.560114 -3.233052 2.735167 11.000000
-8.626472 -3.266605 2.271543 11.000000
-8.612975 -3.276687 1.332988 13.000000
-8.064864 -3.023560 3.536603 13.000000
-6.221588 -3.929504 2.436215 21.000000
-8.777987 -3.316080 0.893381 6.000000
-6.542000 -4.116053 2.990749 6.000000
-6.258406 -3.926349 2.445719 16.000000
-8.229662 -5.131558 1.183450 18.000000
-8.478157 -3.161141 3.200474 3.000000
-8.370600 -5.220156 1.700763 8.000000
-8.559280 -3.218293 1.780405 10.000000
-8.563585 -3.204831 2.732953 6.000000
-8.103520 -3.010157 3.549236 10.000000
-8.643593 -3.243274 2.273206 11.000000
-8.618190 -3.248922 1.332061 7.000000
-8.827738 -3.340029 0.435094 5.000000
-9.011894 -5.622013 0.247098 6.000000
-8.767904 -5.475044 2.307303 4.000000
-6.243602 -3.890925 2.435245 25.000000
-6.551234 -4.094375 2.989110 8.000000
-8.241997 -5.104199 0.704683 8.000000
-8.500073 -3.140201 3.204833 7.000000
-8.242514 -5.105216 1.182834 13.000000
-8.562487 -3.190132 1.778806 13.000000
-8.386268 -5.194955 1.700497 9.000000
-8.795978 -5.455850 2.310040 7.000000
-8.560209 -3.197673 1.321558 22.000000
-8.817124 -3.305745 0.433868 8.000000
-8.781368 -3.287221 0.892452 6.000000
-8.562440 -3.175050 2.729264 5.000000
-8.775327 -3.254888 0.890619 6.000000
-8.553998 -3.142642 2.723312 7.000000
-8.551216 -3.165017 1.318487 11.000000
-8.590481 -3.171154 1.782297 16.000000
-8.818564 -3.276065 0.433204 6.000000
-8.229250 -5.062130 0.702147 17.000000
-8.513972 -3.116220 3.206218 5.000000
-8.633827 -3.180440 2.265081 7.000000
-8.264595 -5.084549 1.183526 10.000000
-8.488136 -5.187449 1.714080 6.000000
-8.980327 -5.490282 0.244408 9.000000
-8.506547 -3.084342 3.199717 5.000000
-8.540287 -3.131650 1.315199 21.000000
-6.614050 -4.078279 3.005970 12.000000
-8.624255 -3.147322 2.259906 8.000000
-8.268901 -5.052817 1.181804 13.000000
-8.235977 -5.032038 0.701268 23.000000
-8.781368 -3.226977 0.890038 6.000000
-8.613868 -3.150235 1.784909 20.000000
-8.556664 -3.085023 2.717769 6.000000
-8.518534 -3.059588 3.200487 6.000000
-8.965205 -5.443950 0.243446 9.000000
-8.824056 -3.217596 0.432121 4.000000
-8.532948 -3.099758 1.312457 16.000000
-8.234905 -4.997319 0.699752 24.000000
-8.311278 -5.044311 1.185375 15.000000
-6.639117 -4.066080 3.011544 6.000000
-8.781696 -3.197040 0.888894 7.000000
-8.628887 -3.126217 1.785812 10.000000
-8.840235 -3.193409 0.432134 7.000000
-8.752850 -3.156738 0.884868 12.000000
-8.233642 -4.962736 0.698184 20.000000
-8.324707 -5.018252 1.184882 8.000000
-6.048991 -3.694906 3.159481 4.000000
-8.601956 -3.080507 2.248767 8.000000
-8.921568 -5.380813 0.241772 5.000000
-8.520801 -3.066348 1.308967 16.000000
-8.530425 -3.034881 3.201208 11.000000
-8.238241 -4.931787 0.697103 25.000000
-8.843183 -3.164432 0.431557 11.000000
-8.545328 -3.022890 2.707856 15.000000
-8.596561 -3.049397 2.244713 6.000000
-8.734157 -3.120322 0.881850 10.000000
-8.512262 -3.034366 1.306039 17.000000
-8.930817 -5.349832 0.241339 11.000000
-8.529788 -3.005732 3.197294 4.000000
-8.642010 -3.072242 1.784132 14.000000
-8.702734 -5.229062 2.799433 6.000000
-8.349986 -4.999294 1.186041 17.000000
-8.519508 -3.007997 1.305532 22.000000
-8.752645 -5.205142 1.753027 5.000000
-8.844630 -5.262035 0.238744 5.000000
-6.071259 -3.658358 3.159148 13.000000
-8.639209 -3.041894 1.781457 5.000000
-8.721927 -3.086298 0.879517 11.000000
-8.369298 -4.976604 1.186419 10.000000
-8.247063 -4.903332 0.696411 15.000000
-8.831945 -3.130379 0.430388 7.000000
-8.790414 -5.191703 1.757159 3.000000
-8.840389 -3.103354 0.430123 5.000000
-6.761644 -4.029650 3.043785 10.000000
-8.652076 -3.017068 1.781991 6.000000
-6.087040 -3.642804 3.161436 8.000000
-8.698302 -3.048397 0.876103 9.000000
-8.397970 -4.959371 1.188107 6.000000
-8.258382 -4.876367 0.695940 22.000000
-8.290587 -4.865092 0.224798 28.000000
-6.810762 -4.031126 3.060071 6.000000
-6.101182 -3.626314 3.162879 10.000000
-7.066798 -4.170326 2.711878 14.000000
-8.431705 -4.945104 1.190452 7.000000
-8.273004 -4.851473 0.695697 23.000000
-8.813860 -5.134214 1.755121 5.000000
-7.121994 -4.174020 2.727843 10.000000
-6.826133 -4.012502 3.061292 15.000000
-8.467987 -4.932205 1.193131 7.000000
-8.749505 -5.114441 2.793466 10.000000
-8.829553 -3.039988 0.428255 7.000000
-8.308225 -4.838608 0.697092 17.000000
-8.286136 -4.829059 0.224101 28.000000
-6.108184 -3.605613 3.160666 10.000000
-6.134864 -3.596404 3.168603 8.000000
-8.836146 -5.111542 1.756222 4.000000
-8.836759 -3.012691 0.427926 3.000000
-6.846319 -3.996584 3.064697 12.000000
-8.284186 -4.794527 0.223507 21.000000
-7.184699 -4.181656 2.746643 5.000000
-8.325353 -4.815019 0.697080 14.000000
-8.598877 -4.973738 1.208809 6.000000
-8.355416 -4.798782 0.698124 16.000000
-8.832750 -5.074011 1.752344 4.000000
-7.203098 -4.163245 2.748653 9.000000
-6.880219 -3.988506 3.074210 8.000000
-8.289066 -4.763999 0.223094 17.000000
-6.171042 -3.592555 3.181412 12.000000
-8.777641 -5.049098 2.257895 6.000000
-6.913293 -3.979862 3.083323 5.000000
-8.378473 -4.778534 0.698568 14.000000
-8.281626 -4.726626 0.222356 24.000000
-7.261808 -4.168006 2.765870 9.000000
-6.199309 -3.584008 3.190136 12.000000
-8.795558 -5.035010 2.792769 5.000000
-8.768467 -5.001443 1.227425 6.000000
-8.828303 -5.036145 1.748247 8.000000
-8.781594 -4.981217 2.250689 6.000000
-8.824545 -4.998872 1.744296 4.000000
-8.433584 -4.776409 0.701538 11.000000
-8.824942 -4.998526 1.232795 5.000000
-8.289671 -4.698244 0.221955 28.000000
-8.788087 -4.949921 2.248293 5.000000
-6.239168 -3.557003 3.199078 9.000000
-8.299401 -4.670782 0.221626 19.000000
-8.454879 -4.754873 0.701854 14.000000
-7.414497 -4.166839 2.808506 4.000000
-8.839933 -4.937344 1.740996 4.000000
-8.318671 -4.648625 0.221539 16.000000
