# .PCD v0.7 - Point Cloud Data file format
VERSION 0.7
FIELDS x y z intensity
SIZE 4 4 4 4
TYPE F F F F
COUNT 1 1 1 1
WIDTH 50
HEIGHT 1
VIEWPOINT 0 0 0 1 0 0 0
POINTS 50
DATA ascii
-8.115403 -5.848632 2.482419 12.000000
-8.119648 -5.814464 2.478197 8.000000
-8.122921 -5.779832 2.473691 12.000000
-8.126049 -5.745251 2.469174 12.000000
-8.140197 -5.718472 2.468029 15.000000
-8.146311 -5.686073 2.464513 8.000000
-8.161848 -5.660382 2.463830 6.000000
-8.174883 -5.633031 2.462408 7.000000
-8.200672 -5.614393 2.464829 10.000000
-8.250548 -5.575682 2.469209 8.000000
-8.271362 -5.553518 2.470174 9.000000
-8.312323 -5.544742 2.477112 11.000000
-8.338771 -5.526050 2.479788 7.000000
-8.792794 -5.379563 2.551676 6.000000
-8.729780 -5.312129 2.002350 4.000000
-8.789401 -5.276176 2.008094 4.000000
-8.875678 -5.147480 2.008650 5.000000
-8.787677 -5.053656 2.507702 4.000000
-8.890395 -5.084600 2.004568 8.000000
-8.068122 -5.977191 2.776287 9.000000
-8.074524 -5.944212 2.772141 5.000000
-8.084641 -5.914177 2.769267 13.000000
-8.065793 -5.863139 2.756625 17.000000
-8.073323 -5.831424 2.752994 9.000000
-8.076824 -5.796896 2.748047 8.000000
-8.095076 -5.773094 2.748087 9.000000
-8.109326 -5.746439 2.746809 15.000000
-8.117189 -5.715295 2.743426 5.000000
-8.144724 -5.697933 2.746671 6.000000
-8.170605 -5.679422 2.749348 11.000000
-8.190886 -5.656979 2.750168 12.000000
-8.212723 -5.635513 2.751543 15.000000
-8.025540 -5.460237 2.171191 5.000000
-8.272774 -5.640020 2.765602 5.000000
-8.090525 -5.468826 2.183916 9.000000
-8.377905 -5.637990 2.788622 6.000000
-8.153989 -5.476018 2.196183 12.000000
-8.241469 -5.462837 2.210223 7.000000
-8.258737 -5.438503 2.210214 5.000000
-8.298792 -5.429117 2.216218 15.000000
-8.422511 -5.437716 2.239716 5.000000
-8.735544 -5.614156 2.865154 4.000000
-8.441371 -5.413851 2.240148 8.000000
-8.576250 -5.463964 2.270920 6.000000
-8.767904 -5.475044 2.307303 4.000000
-8.795978 -5.455850 2.310040 7.000000
-8.702734 -5.229062 2.799433 6.000000
-8.749505 -5.114441 2.793466 10.000000
-8.777641 -5.049098 2.257895 6.000000
-8.795558 -5.035010 2.792769 5.000000
