# .PCD v0.7 - Point Cloud Data file format
VERSION 0.7
FIELDS x y z intensity
SIZE 4 4 4 4
TYPE F F F F
COUNT 1 1 1 1
WIDTH 276
HEIGHT 1
VIEWPOINT 0 0 0 1 0 0 0
POINTS 276
DATA ascii
6.591055 -2.002142 1.668907 118.000000
6.610347 -2.003028 1.318055 112.000000
6.588602 -2.023491 1.669839 91.000000
6.612630 -2.025885 1.319709 123.000000
6.612019 -2.047902 1.320814 93.000000
6.586079 -2.044844 1.670770 91.000000
6.583486 -2.066200 1.671702 111.000000
6.610395 -2.069642 1.321735 86.000000
6.612450 -2.092576 1.323389 102.000000
6.583607 -2.088441 1.673328 134.000000
6.614427 -2.115542 1.325043 125.000000
6.589212 -2.112484 1.676342 94.000000
6.587327 -2.134183 1.677505 124.000000
6.614453 -2.137936 1.326331 112.000000
6.589994 -2.157403 1.679826 138.000000
6.607862 -2.158215 1.326337 108.000000
6.591657 -2.180355 1.681914 97.000000
6.607745 -2.180629 1.327625 114.000000
6.597292 -2.199643 1.326898 116.000000
6.589550 -2.202103 1.683078 105.000000
6.585528 -2.223238 1.683778 112.000000
6.603557 -2.224260 1.329468 107.000000
6.583280 -2.244997 1.684941 98.000000
6.597632 -2.244821 1.329657 107.000000
6.578201 -2.265812 1.685410 124.000000
6.610239 -2.271754 1.333509 128.000000
6.577650 -2.288215 1.687036 92.000000
6.611597 -2.294919 1.335163 96.000000
6.573352 -2.309346 1.687737 97.000000
6.615659 -2.319088 1.337366 103.000000
6.596494 -2.340226 1.695380 52.000000
6.614073 -2.341337 1.338471 117.000000
6.593863 -2.362088 1.696543 30.000000
6.608710 -2.362275 1.338844 106.000000
6.606980 -2.384537 1.339948 100.000000
6.582924 -2.380979 1.695624 59.000000
6.603328 -2.406137 1.340687 122.000000
6.581071 -2.403161 1.697018 82.000000
6.579144 -2.425353 1.698413 78.000000
6.606064 -2.430112 1.342707 102.000000
6.580790 -2.448913 1.700734 122.000000
6.607794 -2.453784 1.344545 67.000000
6.602996 -2.475075 1.345100 84.000000
6.575067 -2.469770 1.701203 120.000000
6.573826 -2.492339 1.702829 86.000000
6.598130 -2.496360 1.345656 101.000000
6.571600 -2.514576 1.704224 115.000000
6.593195 -2.517639 1.346212 101.000000
6.572930 -2.538224 1.706544 110.000000
6.595531 -2.541737 1.348232 98.000000
6.572364 -2.561198 1.708402 88.000000
6.596865 -2.565517 1.350070 111.000000
6.623736 -2.569382 1.000012 105.000000
6.623204 -2.592575 1.001097 91.000000
6.573530 -2.584903 1.710723 105.000000
6.597200 -2.588970 1.351724 117.000000
6.569185 -2.606489 1.711655 106.000000
6.617984 -2.613971 1.001508 102.000000
6.595624 -2.611727 1.353012 87.000000
6.594884 -2.634862 1.354483 100.000000
6.617298 -2.637192 1.002593 97.000000
6.562963 -2.627349 1.712124 86.000000
6.589505 -2.656180 1.355039 97.000000
6.557578 -2.648559 1.712824 103.000000
6.613773 -2.659324 1.003274 109.000000
6.604665 -2.679226 1.003145 69.000000
6.553025 -2.670128 1.713756 111.000000
6.586789 -2.678601 1.356144 93.000000
6.610170 -2.705100 1.005175 96.000000
6.588545 -2.702895 1.358165 73.000000
6.554700 -2.694283 1.716308 81.000000
6.557188 -2.718844 1.719092 119.000000
6.611000 -2.729142 1.006530 104.000000
6.592940 -2.728352 1.360735 108.000000
6.561381 -2.744197 1.722339 104.000000
6.610829 -2.752834 1.007751 138.000000
6.593611 -2.752347 1.362573 80.000000
6.599634 -2.778660 1.365510 91.000000
6.609661 -2.776167 1.008836 102.000000
6.572652 -2.772624 1.727437 76.000000
6.607500 -2.799133 1.009787 125.000000
6.566801 -2.793914 1.728138 100.000000
6.598318 -2.801963 1.366981 107.000000
6.607994 -2.823279 1.011142 68.000000
6.570714 -2.819411 1.731384 101.000000
6.594209 -2.824123 1.367903 111.000000
6.605671 -2.846279 1.012093 95.000000
6.572748 -2.844186 1.734168 83.000000
6.590026 -2.846284 1.368825 111.000000
6.585770 -2.868447 1.369747 113.000000
6.602361 -2.868896 1.012909 109.000000
6.568450 -2.866278 1.735332 117.000000
6.565858 -2.889153 1.736958 94.000000
6.583240 -2.891400 1.371035 71.000000
6.603512 -2.893507 1.014399 120.000000
6.556963 -2.909279 1.736965 93.000000
6.576136 -2.912375 1.371408 83.000000
6.601855 -2.916951 1.015485 127.000000
6.589254 -2.935575 1.014951 110.000000
6.580635 -2.938543 1.374162 107.000000
6.555999 -2.932951 1.739054 70.000000
6.318154 -2.849889 1.679345 57.000000
6.567107 -2.956697 1.373253 72.000000
6.181848 -2.811287 1.646022 56.000000
6.216018 -2.821666 1.303299 60.000000
6.194816 -2.834995 1.300741 75.000000
6.174962 -2.831047 1.646491 51.000000
6.175078 -2.854053 1.648811 105.000000
6.202157 -2.861392 1.304043 123.000000
6.168057 -2.873801 1.649280 111.000000
6.189784 -2.878745 1.303317 92.000000
6.156569 -2.891467 1.648592 72.000000
6.188935 -2.901472 1.304971 83.000000
6.187115 -2.923801 1.306443 97.000000
6.160859 -2.916579 1.652070 86.000000
6.187880 -2.947413 1.308463 95.000000
6.158028 -2.938393 1.653696 83.000000
6.188558 -2.971058 1.310484 87.000000
6.157752 -2.961482 1.656017 93.000000
6.190033 -2.995163 1.312688 94.000000
6.159143 -2.985446 1.658801 108.000000
6.598286 -2.004318 1.515607 128.000000
6.614975 -2.013278 1.168257 136.000000
6.571188 -2.011729 1.871103 112.000000
6.597711 -2.026273 1.516876 92.000000
6.614425 -2.035303 1.169235 124.000000
6.611917 -2.056757 1.169889 91.000000
6.568676 -2.033020 1.872144 106.000000
6.597064 -2.048243 1.518144 92.000000
6.595411 -2.069935 1.519202 131.000000
6.613105 -2.079401 1.171192 117.000000
6.565171 -2.054025 1.872926 120.000000
6.560679 -2.074736 1.873449 124.000000
6.591824 -2.091044 1.519839 122.000000
6.612336 -2.101472 1.172170 141.000000
6.557043 -2.095733 1.874231 118.000000
6.608675 -2.122652 1.172662 133.000000
6.590031 -2.112748 1.520897 110.000000
6.590027 -2.135065 1.522376 135.000000
6.608700 -2.145049 1.173803 150.000000
6.556096 -2.117620 1.875789 132.000000
6.561502 -2.141623 1.879160 133.000000
6.592734 -2.158316 1.524487 87.000000
6.610525 -2.168083 1.175268 119.000000
6.571408 -2.167195 1.883827 111.000000
6.616952 -2.192703 1.177545 141.000000
6.591648 -2.180374 1.525757 106.000000
6.574805 -2.190706 1.886682 112.000000
6.621420 -2.216756 1.179499 139.000000
6.596051 -2.204307 1.528291 121.000000
6.624867 -2.240539 1.181289 158.000000
6.594812 -2.226409 1.529561 128.000000
6.581780 -2.215493 1.890571 88.000000
6.567637 -2.233179 1.888507 127.000000
6.591650 -2.247891 1.530410 130.000000
6.622630 -2.262448 1.182107 146.000000
6.588418 -2.269376 1.531259 125.000000
6.614725 -2.282429 1.181952 114.000000
6.565320 -2.254885 1.889809 123.000000
6.587886 -2.291826 1.532740 122.000000
6.614212 -2.304985 1.183095 141.000000
6.575706 -2.281037 1.894735 86.000000
6.617345 -2.328872 1.184886 174.000000
6.581435 -2.305675 1.898365 77.000000
6.587277 -2.314295 1.534221 109.000000
6.585255 -2.329724 1.901479 57.000000
6.615746 -2.351145 1.185866 150.000000
6.587515 -2.337109 1.535912 111.000000
6.618715 -2.375099 1.187657 133.000000
6.579894 -2.350563 1.902004 33.000000
6.583073 -2.358295 1.536550 123.000000
6.620673 -2.398757 1.189286 157.000000
6.594188 -2.385137 1.540768 101.000000
6.576283 -2.372047 1.903046 84.000000
6.577141 -2.395187 1.905383 109.000000
6.597856 -2.409384 1.543301 104.000000
6.623473 -2.422789 1.191077 152.000000
6.577012 -2.418021 1.907461 100.000000
6.602354 -2.434013 1.546045 104.000000
6.611382 -2.441383 1.190273 107.000000
6.607678 -2.459034 1.548999 137.000000
6.619575 -2.467519 1.193037 132.000000
6.575899 -2.440540 1.909280 83.000000
6.618436 -2.490249 1.194179 136.000000
6.602847 -2.480324 1.549638 101.000000
6.572901 -2.462396 1.910582 92.000000
6.621832 -2.514749 1.196133 136.000000
6.574347 -2.485967 1.913178 108.000000
6.597948 -2.501607 1.550277 97.000000
6.625139 -2.539293 1.198086 108.000000
6.570297 -2.507501 1.914220 79.000000
6.591154 -2.522184 1.550494 115.000000
6.630199 -2.564595 1.200363 141.000000
6.569781 -2.530424 1.916298 102.000000
6.587031 -2.543800 1.551344 117.000000
6.565586 -2.551966 1.917341 106.000000
6.587391 -2.567193 1.553246 90.000000
6.629652 -2.587794 1.201668 138.000000
6.586759 -2.590253 1.554937 92.000000
6.564917 -2.574918 1.919419 85.000000
6.621680 -2.608118 1.201675 102.000000
6.565066 -2.598247 1.921756 103.000000
6.615481 -2.629147 1.202007 103.000000
6.585140 -2.612972 1.556418 104.000000
6.582536 -2.635342 1.557688 110.000000
6.608299 -2.649795 1.202176 117.000000
6.563341 -2.620883 1.923575 98.000000
6.581668 -2.658454 1.559380 103.000000
6.563330 -2.644256 1.925912 82.000000
6.603796 -2.671535 1.202832 120.000000
6.563236 -2.667653 1.928249 108.000000
6.601962 -2.694393 1.203974 118.000000
6.578912 -2.680846 1.560650 73.000000
6.601874 -2.718017 1.205441 135.000000
6.562168 -2.690708 1.930327 115.000000
6.577887 -2.703991 1.562341 99.000000
6.561913 -2.714151 1.932664 92.000000
6.581295 -2.729030 1.565085 121.000000
6.607170 -2.743939 1.207881 109.000000
6.563357 -2.738363 1.935519 92.000000
6.576499 -2.750715 1.565935 99.000000
6.615098 -2.771065 1.210807 78.000000
6.577033 -2.774680 1.568047 117.000000
6.562045 -2.761483 1.937598 114.000000
6.610200 -2.792882 1.211464 112.000000
6.576582 -2.798291 1.569949 118.000000
6.558874 -2.783866 1.939158 88.000000
6.609768 -2.816631 1.212930 110.000000
6.555628 -2.806255 1.940718 113.000000
6.607440 -2.839624 1.214073 128.000000
6.581438 -2.824241 1.573114 83.000000
6.600508 -2.860664 1.214404 104.000000
6.579917 -2.847526 1.574806 95.000000
6.554079 -2.829417 1.942796 99.000000
6.553335 -2.852981 1.945134 94.000000
6.581898 -2.872394 1.577340 149.000000
6.599835 -2.884458 1.215872 135.000000
6.579316 -2.895329 1.578820 112.000000
6.577413 -2.898712 1.213446 83.000000
6.545435 -2.873458 1.945400 87.000000
6.562361 -2.911924 1.576933 74.000000
6.530625 -2.902022 1.206641 63.000000
6.538353 -2.894305 1.945925 87.000000
6.473888 -2.889512 1.929622 58.000000
6.205471 -2.776134 1.494832 68.000000
6.212898 -2.783472 1.151020 85.000000
6.161186 -2.772423 1.840316 83.000000
6.188015 -2.791130 1.492733 90.000000
6.198935 -2.800076 1.150054 92.000000
6.155289 -2.792507 1.841099 94.000000
6.190098 -2.814961 1.495267 85.000000
6.203781 -2.825220 1.152493 138.000000
6.189428 -2.837607 1.497168 76.000000
6.208532 -2.850420 1.154933 161.000000
6.152839 -2.814191 1.842918 91.000000
6.153821 -2.837505 1.845773 84.000000
6.186015 -2.859043 1.498438 111.000000
6.199757 -2.869451 1.154940 134.000000
6.199864 -2.892632 1.156569 118.000000
6.155594 -2.861260 1.848886 100.000000
6.184301 -2.881311 1.500129 76.000000
6.184278 -2.904428 1.502242 70.000000
6.200779 -2.916261 1.158359 131.000000
6.155529 -2.884231 1.851482 110.000000
6.201608 -2.939924 1.160150 118.000000
6.153636 -2.906403 1.853559 95.000000
6.180637 -2.925897 1.503512 89.000000
6.205910 -2.965322 1.162590 109.000000
6.180451 -2.949056 1.505624 73.000000
6.154280 -2.929837 1.856414 95.000000
6.209226 -2.990345 1.164868 101.000000
6.153967 -2.952885 1.859010 99.000000
6.181062 -2.972667 1.507947 64.000000
6.183345 -2.997162 1.510691 84.000000
6.152702 -2.975536 1.861347 88.000000
6.151355 -2.998208 1.863683 80.000000
