# .PCD v0.7 - Point Cloud Data file format
VERSION 0.7
FIELDS x y z intensity
SIZE 4 4 4 4
TYPE F F F F
COUNT 1 1 1 1
WIDTH 168
HEIGHT 1
VIEWPOINT 0 0 0 1 0 0 0
POINTS 168
DATA ascii
4.975407 -1.006002 -0.020712 12.000000
4.995572 -1.042013 -0.021010 4.000000
4.367035 -1.005437 -0.452714 13.000000
4.362962 -1.018603 -0.452601 7.000000
4.353045 -1.030381 -0.451833 16.000000
4.345998 -1.042803 -0.451392 5.000000
4.187961 -1.167948 -0.654585 30.000000
4.088368 -1.153731 -0.638625 57.000000
4.132288 -1.179808 -0.646521 34.000000
4.074572 -1.176876 -0.637512 40.000000
4.650680 -1.342269 -0.977718 26.000000
4.385015 -1.282645 -0.462254 9.000000
4.046298 -1.182177 -0.633401 57.000000
4.657814 -1.359817 -0.980188 139.000000
4.079587 -1.205486 -0.639559 39.000000
4.407751 -1.303978 -0.465308 21.000000
4.583231 -1.353335 -0.964719 202.000000
4.578121 -1.367108 -0.964509 215.000000
4.399920 -1.316354 -0.464867 15.000000
4.050323 -1.210368 -0.635290 48.000000
4.575780 -1.381711 -0.964917 220.000000
4.416795 -1.336172 -0.467266 11.000000
4.103310 -1.239908 -0.644765 32.000000
4.025821 -1.230006 -0.632440 60.000000
4.580879 -1.398596 -0.966975 157.000000
4.412675 -1.349714 -0.467262 24.000000
4.419911 -1.366765 -0.468569 19.000000
4.006932 -1.237692 -0.629909 75.000000
4.570022 -1.410623 -0.965528 73.000000
4.407158 -1.377649 -0.467582 6.000000
4.002174 -1.249683 -0.629747 160.000000
4.000206 -1.262548 -0.630059 135.000000
4.427557 -1.398942 -0.470417 4.000000
4.340097 -1.368935 -0.916653 7.000000
4.438397 -1.417351 -0.472160 9.000000
4.446327 -1.434925 -0.473576 20.000000
4.439069 -1.447634 -0.473244 15.000000
4.444993 -1.464663 -0.474442 10.000000
4.431991 -1.475468 -0.473455 11.000000
4.522902 -1.518606 -0.963021 10.000000
4.438751 -1.492856 -0.474761 14.000000
4.587729 -1.556029 -0.978481 120.000000
4.436033 -1.507103 -0.474976 5.000000
4.595895 -1.574531 -0.981364 212.000000
4.413553 -1.529736 -0.473439 15.000000
4.589194 -1.587983 -0.980947 210.000000
4.410716 -1.543924 -0.473654 6.000000
4.559359 -1.593344 -0.975376 152.000000
4.536916 -1.601140 -0.971454 104.000000
4.407834 -1.558109 -0.473868 5.000000
4.392735 -1.567950 -0.472663 6.000000
4.541202 -1.618333 -0.973512 130.000000
4.545424 -1.635566 -0.975570 179.000000
4.393516 -1.583438 -0.473314 11.000000
4.525670 -1.644160 -0.972267 101.000000
4.417598 -1.607437 -0.476695 20.000000
4.985983 -1.007099 -0.136502 110.000000
4.968461 -1.014020 -0.385070 196.000000
4.968254 -1.029865 -0.385316 193.000000
4.965071 -1.045100 -0.385312 145.000000
4.964765 -1.060953 -0.385559 144.000000
4.961487 -1.076178 -0.385555 114.000000
4.734361 -1.041939 -0.366385 18.000000
4.414238 -1.009037 -0.565423 12.000000
4.422707 -1.025270 -0.567011 12.000000
4.416646 -1.038149 -0.566610 9.000000
4.441396 -1.058381 -0.570452 9.000000
4.533491 -1.095126 -0.583576 48.000000
4.589787 -1.123694 -0.591793 58.000000
4.584394 -1.137289 -0.591524 58.000000
4.574157 -1.149649 -0.590593 45.000000
4.566768 -1.162694 -0.590059 37.000000
4.580452 -1.181167 -0.592442 54.000000
4.585436 -1.197474 -0.593632 46.000000
4.028496 -1.975969 -0.676630 5.000000
4.572161 -1.208992 -0.592302 50.000000
4.580875 -1.226355 -0.594022 40.000000
4.569440 -1.238321 -0.592958 42.000000
4.568487 -1.253121 -0.593352 47.000000
4.535977 -1.259150 -0.589371 52.000000
4.860114 -1.342146 -0.889086 92.000000
4.844612 -1.353863 -0.886904 82.000000
4.536863 -1.274403 -0.590030 69.000000
4.488133 -1.275539 -0.583795 62.000000
4.715557 -1.333294 -0.862938 132.000000
4.648115 -1.329578 -0.850771 179.000000
4.484200 -1.289301 -0.583791 92.000000
4.631737 -1.340266 -0.848407 227.000000
4.995301 -1.464658 -0.140462 32.000000
4.449776 -1.294165 -0.579545 184.000000
4.355475 -1.281155 -0.566946 44.000000
4.628548 -1.354745 -0.848585 210.000000
4.242301 -1.261908 -0.551696 11.000000
4.625313 -1.369217 -0.848763 226.000000
4.630509 -1.386228 -0.850575 171.000000
4.229870 -1.272338 -0.550499 7.000000
4.884983 -1.491995 -0.388033 31.000000
4.628118 -1.400997 -0.850934 143.000000
4.188975 -1.274024 -0.545325 2.000000
4.576795 -1.400757 -0.841854 34.000000
4.980335 -1.537925 -0.396776 46.000000
4.241875 -1.304401 -0.553276 11.000000
4.986055 -1.556470 -0.397689 57.000000
4.347071 -1.344829 -0.798284 8.000000
4.294626 -1.335114 -0.561228 22.000000
4.967006 -1.567248 -0.396435 44.000000
4.315088 -1.356031 -0.564671 25.000000
4.336358 -1.356097 -0.797010 7.000000
4.973565 -1.586119 -0.397431 44.000000
4.340184 -1.378590 -0.568778 35.000000
4.627453 -1.463030 -0.854187 29.000000
4.332161 -1.390682 -0.568244 22.000000
4.864551 -1.554654 -0.901016 128.000000
4.340127 -1.407952 -0.569964 28.000000
4.848533 -1.565933 -0.898833 124.000000
4.839969 -1.579576 -0.898102 105.000000
4.341438 -1.423116 -0.570754 14.000000
4.821096 -1.589784 -0.895374 106.000000
4.331409 -1.434552 -0.569954 16.000000
4.339203 -1.451932 -0.571673 26.000000
4.999651 -1.679388 -0.401904 59.000000
4.746244 -1.581195 -0.881755 125.000000
4.993532 -1.694396 -0.401816 48.000000
4.713419 -1.586314 -0.876304 98.000000
4.371338 -1.477648 -0.576839 21.000000
4.333027 -1.479489 -0.572062 31.000000
4.595906 -1.562370 -0.854336 207.000000
4.911031 -1.683151 -0.394980 31.000000
4.664836 -1.614564 -0.373650 17.000000
4.588303 -1.575500 -0.853786 189.000000
4.349076 -1.499902 -0.574973 24.000000
4.197547 -1.461916 -0.554156 9.000000
4.582520 -1.589245 -0.853600 287.000000
4.577623 -1.603295 -0.853595 153.000000
4.279971 -1.505452 -0.566480 12.000000
4.237051 -1.504937 -0.561040 17.000000
4.575464 -1.618316 -0.854135 195.000000
4.586218 -1.637980 -0.857215 76.000000
4.321019 -1.549797 -0.573629 29.000000
4.132711 -1.496393 -0.547510 19.000000
4.116004 -1.504627 -0.545782 6.000000
4.458091 -1.645576 -0.595223 57.000000
4.469735 -1.665488 -0.597605 70.000000
4.442347 -1.670797 -0.594418 33.000000
4.481666 -1.701341 -0.600777 33.000000
4.435714 -1.699442 -0.594939 55.000000
4.419390 -1.708741 -0.593344 81.000000
4.404897 -1.718679 -0.592013 72.000000
4.409746 -1.736186 -0.593467 63.000000
4.373091 -1.737236 -0.588955 210.000000
4.395333 -1.761730 -0.592927 79.000000
4.407361 -1.782280 -0.595441 55.000000
4.401873 -1.795791 -0.595436 54.000000
4.399092 -1.810420 -0.595829 49.000000
4.388028 -1.821621 -0.595029 41.000000
4.386989 -1.836991 -0.595687 51.000000
4.355776 -1.839619 -0.591971 44.000000
4.366521 -1.859979 -0.594352 35.000000
4.370809 -1.877677 -0.595806 30.000000
4.354119 -1.886338 -0.594210 45.000000
4.341048 -1.896504 -0.593145 41.000000
4.385079 -1.931834 -0.600430 54.000000
4.363739 -1.938422 -0.598173 58.000000
4.320699 -1.935155 -0.592734 37.000000
4.384273 -1.979872 -0.602934 44.000000
4.389901 -1.998661 -0.604653 53.000000
4.319817 -1.982705 -0.595238 121.000000
4.293933 -1.986773 -0.592318 180.000000
