# .PCD v0.7 - Point Cloud Data file format
VERSION 0.7
FIELDS x y z intensity
SIZE 4 4 4 4
TYPE F F F F
COUNT 1 1 1 1
WIDTH 288
HEIGHT 1
VIEWPOINT 0 0 0 1 0 0 0
POINTS 288
DATA ascii
6.669415 -2.005872 0.295902 112.000000
6.638526 -2.000309 0.634783 105.000000
6.626120 -2.023754 0.975858 54.000000
6.639982 -2.022984 0.635480 122.000000
6.665142 -2.026902 0.295983 125.000000
6.619880 -2.044069 0.975863 104.000000
6.643267 -2.046273 0.636349 115.000000
6.662714 -2.048512 0.296138 117.000000
6.617361 -2.065546 0.976409 125.000000
6.660215 -2.070125 0.296294 99.000000
6.645519 -2.069306 0.637131 123.000000
6.649593 -2.092968 0.638086 143.000000
6.660507 -2.092641 0.296561 131.000000
6.618553 -2.088217 0.977494 108.000000
6.619668 -2.110916 0.978579 95.000000
6.645989 -2.114261 0.638352 128.000000
6.660723 -2.115178 0.296829 136.000000
6.642317 -2.135552 0.638616 118.000000
6.662766 -2.138347 0.297171 159.000000
6.621648 -2.133945 0.979798 111.000000
6.659977 -2.160007 0.297326 126.000000
6.640472 -2.157455 0.639054 123.000000
6.621666 -2.156392 0.980749 130.000000
6.660917 -2.182914 0.297631 135.000000
6.617843 -2.177622 0.981159 136.000000
6.640448 -2.179988 0.639664 113.000000
6.657984 -2.204592 0.297787 170.000000
6.617712 -2.200098 0.982109 126.000000
6.641294 -2.202854 0.640361 118.000000
6.643007 -2.226063 0.641143 107.000000
6.623143 -2.224486 0.983869 148.000000
6.658771 -2.227540 0.298092 122.000000
6.628486 -2.248927 0.985628 118.000000
6.656640 -2.249554 0.298285 103.000000
6.642752 -2.248665 0.641754 143.000000
6.641479 -2.270963 0.642278 119.000000
6.658219 -2.272866 0.298627 126.000000
6.620617 -2.268928 0.985499 125.000000
6.661608 -2.296860 0.299044 140.000000
6.617371 -2.290520 0.986045 136.000000
6.637305 -2.292300 0.642543 121.000000
6.664912 -2.320897 0.299461 161.000000
6.605636 -2.309174 0.985377 95.000000
6.635886 -2.314616 0.643067 119.000000
6.633453 -2.336615 0.643504 143.000000
6.602258 -2.330744 0.985922 97.000000
6.663416 -2.343318 0.299692 137.000000
6.630947 -2.358619 0.643942 114.000000
6.599742 -2.352647 0.986603 115.000000
6.662788 -2.366087 0.299959 156.000000
6.598088 -2.374892 0.987418 130.000000
6.663965 -2.389548 0.300302 133.000000
6.633994 -2.382651 0.644898 108.000000
6.601015 -2.398841 0.988908 132.000000
6.662241 -2.412018 0.300532 142.000000
6.631336 -2.404686 0.645335 103.000000
6.630476 -2.427413 0.645946 117.000000
6.605718 -2.423512 0.990667 143.000000
6.661380 -2.434844 0.300800 136.000000
6.660443 -2.457686 0.301068 122.000000
6.634213 -2.451882 0.646988 129.000000
6.610332 -2.448234 0.992427 141.000000
6.659427 -2.480546 0.301336 117.000000
6.635061 -2.475353 0.647771 128.000000
6.617641 -2.474048 0.994591 138.000000
6.623926 -2.499580 0.996621 107.000000
6.660204 -2.504125 0.301678 107.000000
6.633030 -2.497799 0.648295 128.000000
6.663703 -2.528796 0.302133 101.000000
6.634649 -2.521672 0.649164 141.000000
6.626413 -2.523764 0.998111 127.000000
6.637115 -2.545934 0.650120 129.000000
6.625113 -2.546565 0.999061 107.000000
6.665246 -2.552798 0.302513 122.000000
6.640422 -2.570595 0.651162 107.000000
6.663909 -2.575752 0.302781 130.000000
6.643641 -2.595300 0.652204 144.000000
6.665286 -2.599811 0.303161 112.000000
6.665648 -2.623537 0.303504 114.000000
6.643063 -2.618588 0.652901 120.000000
6.643331 -2.642265 0.653684 100.000000
6.668714 -2.648395 0.303958 153.000000
6.662414 -2.669582 0.304040 111.000000
6.639817 -2.664485 0.654122 120.000000
6.656972 -2.691129 0.304158 94.000000
6.638999 -2.687829 0.654819 112.000000
6.639023 -2.711571 0.655602 90.000000
6.653312 -2.713423 0.304351 96.000000
6.637122 -2.734578 0.656213 97.000000
6.650501 -2.736099 0.304582 99.000000
6.647615 -2.758784 0.304813 110.000000
6.636981 -2.758363 0.656996 110.000000
6.634001 -2.781019 0.657521 124.000000
6.648338 -2.783019 0.305193 85.000000
6.629109 -2.802907 0.657872 82.000000
6.647135 -2.806508 0.305498 114.000000
6.638809 -2.831041 0.659605 122.000000
6.654125 -2.833538 0.306140 83.000000
6.661930 -2.861031 0.306820 70.000000
6.639245 -2.855326 0.660475 109.000000
6.664126 -2.886216 0.307275 107.000000
6.631368 -2.876074 0.660568 75.000000
6.633468 -2.901190 0.661610 101.000000
6.665315 -2.911043 0.307692 91.000000
6.623624 -2.921123 0.661530 102.000000
6.647207 -2.927449 0.307325 64.000000
6.661029 -2.957960 0.308266 110.000000
6.610080 -2.939403 0.661105 103.000000
6.645538 -2.975522 0.308011 90.000000
6.444627 -2.894897 0.994723 51.000000
6.575574 -2.948256 0.658694 76.000000
6.237843 -2.819912 0.627447 68.000000
6.318367 -2.861531 0.977192 42.000000
6.234687 -2.814638 0.291528 58.000000
6.222816 -2.836142 0.626849 95.000000
6.213106 -2.836881 0.962764 69.000000
6.240577 -2.840371 0.292133 98.000000
6.207973 -2.857582 0.963310 100.000000
6.253634 -2.869498 0.293036 122.000000
6.223139 -2.859375 0.627719 86.000000
6.223379 -2.882635 0.628588 96.000000
6.209065 -2.881196 0.964800 88.000000
6.250244 -2.891183 0.293267 141.000000
6.222631 -2.905504 0.629371 106.000000
6.215456 -2.907362 0.967099 126.000000
6.246779 -2.912875 0.293497 102.000000
6.216366 -2.931061 0.968589 107.000000
6.223604 -2.929243 0.630327 107.000000
6.246858 -2.936273 0.293877 110.000000
6.225390 -2.953442 0.631370 129.000000
6.217190 -2.954791 0.970080 99.000000
6.247756 -2.960126 0.294295 128.000000
6.259387 -2.989177 0.295161 87.000000
6.217033 -2.978127 0.971435 105.000000
6.227087 -2.977679 0.632412 120.000000
6.659041 -2.004573 0.482217 118.000000
6.690020 -2.011439 0.141199 130.000000
6.639946 -2.020973 0.823150 117.000000
6.660496 -2.027319 0.482736 156.000000
6.686687 -2.032826 0.141249 120.000000
6.640361 -2.043380 0.823947 148.000000
6.683287 -2.054210 0.141300 127.000000
6.662828 -2.050387 0.483320 139.000000
6.637855 -2.064922 0.824405 146.000000
6.674089 -2.073810 0.141261 98.000000
6.663175 -2.072894 0.483775 156.000000
6.633384 -2.085871 0.824636 127.000000
6.664399 -2.095723 0.484294 161.000000
6.673419 -2.096074 0.141356 128.000000
6.676485 -2.119566 0.141512 145.000000
6.662693 -2.117670 0.484620 142.000000
6.634528 -2.108620 0.825546 110.000000
6.677567 -2.142484 0.141638 122.000000
6.664714 -2.140849 0.485204 160.000000
6.633702 -2.130788 0.826230 109.000000
6.662859 -2.162826 0.485531 151.000000
6.681423 -2.166356 0.141809 139.000000
6.631858 -2.152663 0.826801 98.000000
6.683295 -2.189648 0.141950 136.000000
6.660933 -2.184812 0.485858 139.000000
6.636549 -2.176718 0.828164 138.000000
6.695528 -2.216435 0.142259 193.000000
6.638326 -2.199883 0.829189 136.000000
6.657041 -2.206177 0.486058 115.000000
6.637197 -2.222131 0.829875 147.000000
6.682060 -2.234739 0.142161 129.000000
6.658755 -2.229444 0.486643 144.000000
6.633172 -2.243436 0.830221 139.000000
6.658500 -2.252101 0.487100 163.000000
6.683697 -2.258111 0.142303 142.000000
6.683361 -2.280868 0.142416 138.000000
6.630958 -2.265382 0.830793 130.000000
6.658169 -2.274778 0.487556 155.000000
6.681057 -2.302990 0.142498 154.000000
6.655874 -2.296821 0.487885 139.000000
6.630549 -2.287984 0.831592 161.000000
6.658218 -2.320517 0.488534 166.000000
6.679626 -2.325449 0.142596 145.000000
6.629127 -2.310277 0.832278 129.000000
6.660479 -2.344248 0.489184 170.000000
6.676232 -2.347257 0.142663 165.000000
6.629504 -2.333244 0.833189 132.000000
6.626995 -2.355235 0.833762 137.000000
6.658896 -2.366677 0.489576 143.000000
6.674653 -2.369736 0.142761 156.000000
6.672056 -2.391889 0.142843 152.000000
6.630022 -2.379249 0.835013 153.000000
6.656300 -2.388780 0.489904 146.000000
6.668447 -2.413708 0.142911 154.000000
6.654568 -2.411230 0.490297 142.000000
6.627361 -2.401270 0.835585 125.000000
6.633023 -2.426374 0.837176 125.000000
6.655572 -2.434721 0.490883 182.000000
6.665706 -2.435871 0.142994 165.000000
6.649943 -2.455819 0.491018 132.000000
6.660078 -2.457000 0.143031 128.000000
6.643253 -2.453259 0.839331 148.000000
6.656256 -2.478817 0.143098 138.000000
6.648922 -2.478649 0.491475 177.000000
6.642211 -2.476059 0.840130 143.000000
6.640162 -2.498524 0.840816 132.000000
6.655170 -2.501689 0.143211 107.000000
6.645021 -2.500441 0.491739 178.000000
6.641049 -2.522232 0.492004 187.000000
6.637108 -2.520647 0.841388 172.000000
6.666157 -2.529197 0.143519 157.000000
6.666769 -2.552857 0.143662 127.000000
6.639546 -2.544912 0.842639 156.000000
6.644460 -2.546885 0.492781 157.000000
6.639119 -2.568139 0.843551 133.000000
6.646851 -2.571221 0.493495 172.000000
6.673825 -2.579071 0.143910 154.000000
6.639537 -2.591748 0.844576 123.000000
6.645437 -2.594141 0.493952 178.000000
6.681715 -2.605716 0.144173 119.000000
6.682062 -2.629499 0.144316 170.000000
6.637100 -2.614290 0.845262 134.000000
6.647658 -2.618543 0.494666 142.000000
6.648865 -2.642613 0.495315 128.000000
6.679538 -2.652202 0.144414 150.000000
6.634586 -2.636842 0.845948 148.000000
6.628309 -2.657922 0.846181 105.000000
6.635170 -2.660765 0.494937 162.000000
6.676010 -2.674541 0.144496 136.000000
6.673334 -2.697258 0.144594 101.000000
6.647323 -2.689351 0.496358 104.000000
6.631174 -2.682719 0.847545 104.000000
6.629350 -2.705678 0.848344 131.000000
6.668731 -2.719228 0.144662 120.000000
6.646431 -2.712750 0.496879 102.000000
6.666829 -2.742338 0.144774 114.000000
6.654684 -2.739973 0.498043 111.000000
6.639389 -2.733577 0.850613 110.000000
6.641979 -2.758510 0.851977 112.000000
6.675928 -2.770067 0.145068 106.000000
6.662831 -2.767273 0.499206 147.000000
6.662592 -2.791173 0.499792 109.000000
6.681231 -2.796331 0.145301 136.000000
6.644479 -2.783484 0.853342 113.000000
6.687356 -2.823043 0.145550 147.000000
6.644144 -2.807337 0.854367 106.000000
6.660431 -2.814320 0.500249 65.000000
6.659108 -2.837872 0.500770 114.000000
6.684182 -2.845897 0.145648 114.000000
6.638241 -2.828875 0.854713 89.000000
6.678176 -2.867573 0.145700 103.000000
6.635919 -2.851974 0.855512 111.000000
6.650370 -2.858285 0.500777 88.000000
6.629872 -2.873503 0.855859 123.000000
6.633332 -2.875095 0.500206 76.000000
6.677603 -2.891625 0.145843 127.000000
6.649163 -2.906234 0.501948 122.000000
6.664120 -2.910092 0.145775 104.000000
6.629217 -2.897412 0.856884 129.000000
6.673459 -2.938590 0.146084 158.000000
6.627568 -2.920943 0.857796 139.000000
6.644781 -2.928632 0.502277 165.000000
6.391238 -2.837570 0.141585 65.000000
6.422425 -2.854046 0.487250 73.000000
6.565019 -2.917422 0.851131 80.000000
6.240578 -2.795982 0.811782 62.000000
6.247936 -2.799370 0.475565 90.000000
6.256595 -2.800710 0.139512 107.000000
6.218392 -2.808968 0.810092 89.000000
6.244774 -2.820991 0.475957 133.000000
6.261641 -2.826066 0.139745 98.000000
6.258401 -2.847749 0.139842 122.000000
6.217881 -2.831740 0.811117 124.000000
6.245170 -2.844275 0.476606 108.000000
6.264172 -2.873613 0.140090 139.000000
6.246387 -2.868005 0.477320 116.000000
6.211872 -2.852045 0.811463 99.000000
6.251140 -2.893448 0.478291 142.000000
6.219318 -2.878608 0.813505 135.000000
6.265307 -2.897437 0.140263 133.000000
6.253987 -2.918102 0.479133 153.000000
6.269979 -2.922988 0.140496 93.000000
6.218559 -2.901458 0.814530 145.000000
6.217718 -2.924330 0.815555 155.000000
6.253130 -2.941100 0.479718 128.000000
6.260982 -2.942207 0.140503 159.000000
6.263670 -2.966971 0.140706 127.000000
6.255796 -2.965832 0.480560 147.000000
6.215000 -2.946372 0.816353 122.000000
6.262658 -2.990053 0.140848 129.000000
6.255670 -2.989316 0.481210 165.000000
6.219375 -2.971856 0.818057 164.000000
6.225441 -2.998258 0.819987 116.000000
