# .PCD v0.7 - Point Cloud Data file format
VERSION 0.7
FIELDS x y z intensity
SIZE 4 4 4 4
TYPE F F F F
COUNT 1 1 1 1
WIDTH 154
HEIGHT 1
VIEWPOINT 0 0 0 1 0 0 0
POINTS 154
DATA ascii
6.047518 3.964327 2.524328 4.000000
6.039970 3.761060 2.095717 24.000000
6.022790 3.663714 2.461645 6.000000
6.023366 3.563547 2.444014 6.000000
6.049752 3.554157 2.450212 5.000000
6.013033 3.517720 2.052463 35.000000
6.033759 3.505051 2.055808 32.000000
6.052800 3.491328 2.058594 32.000000
6.062649 3.472269 2.058313 33.000000
6.080784 3.457931 2.060821 32.000000
6.087182 3.436902 2.059424 34.000000
6.094346 3.416336 2.058306 48.000000
6.108154 3.399496 2.059419 38.000000
6.131160 3.387714 2.063601 50.000000
6.002512 3.283005 2.389822 6.000000
6.159202 3.378595 2.069456 34.000000
6.218447 3.386337 2.085630 21.000000
6.233028 3.369532 2.087023 35.000000
6.440470 3.456248 2.152005 37.000000
6.446804 3.434219 2.150609 35.000000
6.030421 3.179102 2.381327 6.000000
6.533843 3.434408 2.993577 11.000000
6.571902 3.475056 2.188259 69.000000
6.530364 3.407053 2.987236 8.000000
6.577430 3.452203 2.186583 71.000000
6.516068 3.374201 2.976046 8.000000
6.576067 3.425798 2.182676 61.000000
6.347574 3.272107 2.493245 4.000000
6.592515 3.408700 2.184627 93.000000
6.590981 3.382322 2.180720 93.000000
6.370203 3.259083 2.498137 5.000000
6.522597 3.326996 2.969703 13.000000
6.401239 3.250233 2.506293 5.000000
6.537738 3.309491 2.971938 12.000000
6.588491 3.355550 2.176534 72.000000
6.422996 3.236542 2.510859 3.000000
6.520502 3.275671 2.959630 6.000000
6.587613 3.329691 2.172906 90.000000
6.528859 3.254828 2.958883 9.000000
6.592647 3.306885 2.171231 97.000000
6.436275 3.218518 2.512163 5.000000
6.596743 3.283651 2.169277 84.000000
6.416485 3.184049 2.500740 5.000000
6.537981 3.234377 2.958508 4.000000
6.600759 3.260423 2.167322 84.000000
6.558698 3.219627 2.963354 7.000000
6.392305 3.147642 2.487686 4.000000
6.403629 3.128851 2.488336 8.000000
6.603831 3.236779 2.165089 94.000000
6.536849 3.184048 2.949182 7.000000
6.373225 3.089804 2.472998 9.000000
6.538232 3.159944 2.945451 7.000000
6.605094 3.212306 2.162298 94.000000
6.363083 3.060813 2.465492 11.000000
6.601945 3.185768 2.158113 94.000000
6.598696 3.159279 2.153928 98.000000
6.350265 3.030690 2.457006 12.000000
6.592744 3.131604 2.148906 124.000000
6.525923 3.080234 2.927173 8.000000
6.591897 3.106453 2.145557 99.000000
6.533660 3.059416 2.926426 4.000000
6.593566 3.082557 2.143045 95.000000
6.535441 3.035842 2.923068 9.000000
6.597764 3.059893 2.141370 94.000000
6.541353 3.014229 2.921575 7.000000
6.596652 3.034823 2.138021 94.000000
6.596321 3.010187 2.134952 127.000000
6.317557 3.958080 2.429838 23.000000
6.332902 3.940694 2.431061 20.000000
6.302844 3.895252 2.415115 33.000000
6.351280 3.898289 2.428909 26.000000
6.372151 3.884235 2.432279 15.000000
6.532122 3.992587 2.922402 9.000000
6.533941 3.966229 2.917801 5.000000
6.373448 3.858270 2.428290 18.000000
6.587380 3.978210 2.090816 92.000000
6.366486 3.827433 2.421236 29.000000
6.584638 3.949051 2.086156 84.000000
6.585099 3.921921 2.082531 81.000000
6.531660 3.910233 2.906123 5.000000
6.392095 3.816175 2.426445 17.000000
6.422608 3.807706 2.433494 14.000000
6.581297 3.892370 2.077612 100.000000
6.416207 3.777375 2.426746 17.000000
6.585709 3.867766 2.075281 104.000000
6.587526 3.841713 2.072173 88.000000
6.421189 3.753837 2.424290 16.000000
6.443379 3.740331 2.428273 13.000000
6.587574 3.814718 2.068548 109.000000
6.458947 3.722925 2.429804 11.000000
6.542262 3.781549 2.884886 9.000000
6.590031 3.789203 2.065699 106.000000
6.452984 3.693177 2.423362 16.000000
6.587359 3.760837 2.061298 96.000000
6.469249 3.676186 2.425200 12.000000
6.586257 3.733475 2.057415 108.000000
6.478252 3.665509 2.842079 4.000000
6.583364 3.705209 2.053014 106.000000
6.478008 3.654924 2.424277 17.000000
6.502480 3.642474 2.429180 9.000000
6.582891 3.678408 2.049389 122.000000
6.499254 3.651114 2.846321 9.000000
6.582315 3.651645 2.045764 97.000000
6.495317 3.612344 2.422432 14.000000
6.582483 3.625385 2.042398 98.000000
6.518871 3.599299 2.427029 17.000000
6.462067 3.552444 2.815894 8.000000
6.582553 3.599159 2.039032 108.000000
6.508173 3.567403 2.419055 14.000000
6.587618 3.575729 2.037219 94.000000
6.531631 3.554242 2.423651 18.000000
6.418730 3.503063 2.792547 9.000000
6.546691 3.536452 2.425182 10.000000
6.590901 3.551386 2.034888 84.000000
6.447544 3.493152 2.800326 11.000000
6.593245 3.526602 2.032298 94.000000
6.468941 3.479114 2.804922 14.000000
6.517233 3.494785 2.410463 17.000000
6.558180 3.490863 2.421498 7.000000
6.485360 3.462337 2.807396 14.000000
6.593791 3.500931 2.029191 90.000000
6.595097 3.475741 2.026343 80.000000
6.571383 3.472064 2.422415 6.000000
6.589461 3.446997 2.021425 99.000000
6.564296 3.442618 2.415974 8.000000
6.484122 3.410744 2.797841 6.000000
6.533443 3.400954 2.400949 9.000000
6.591429 3.422322 2.018835 103.000000
6.490408 3.388678 2.796070 4.000000
6.589014 3.395458 2.014952 98.000000
6.519878 3.378644 2.804203 14.000000
6.533695 3.375661 2.397267 10.000000
6.609254 3.389012 2.420872 6.000000
6.593377 3.372156 2.013139 96.000000
6.456994 3.321022 2.773074 6.000000
6.585598 3.342744 2.007703 101.000000
6.460485 3.297804 2.770242 8.000000
6.486399 3.301016 2.372735 20.000000
6.448903 3.257101 2.355563 19.000000
6.473074 3.279240 2.771302 9.000000
6.584603 3.316885 2.004338 105.000000
6.457162 3.236453 2.354948 18.000000
6.582647 3.290632 2.000714 114.000000
6.458535 3.212398 2.351880 20.000000
6.490557 3.203514 2.359849 48.000000
6.464441 3.166027 2.346970 41.000000
6.510945 3.164054 2.360152 49.000000
6.531769 3.149437 2.364136 70.000000
6.538823 3.128157 2.363214 74.000000
6.546668 3.107271 2.362598 80.000000
6.543248 3.081100 2.357998 88.000000
6.541455 3.055786 2.354010 75.000000
6.533521 3.027712 2.347876 89.000000
6.534128 3.003687 2.344809 92.000000
