# .PCD v0.7 - Point Cloud Data file format
VERSION 0.7
FIELDS x y z intensity
SIZE 4 4 4 4
TYPE F F F F
COUNT 1 1 1 1
WIDTH 220
HEIGHT 1
VIEWPOINT 0 0 0 1 0 0 0
POINTS 220
DATA ascii
0.982097 -4.002442 -1.488124 53.000000
0.959048 -4.014773 -1.490563 56.000000
0.944145 -4.006750 -1.486376 70.000000
0.932062 -4.010540 -1.486724 66.000000
0.919335 -4.011553 -1.486025 70.000000
0.907232 -4.015268 -1.486372 73.000000
0.896134 -4.023521 -1.488464 80.000000
0.883586 -4.025336 -1.488113 62.000000
0.871828 -4.030775 -1.489159 72.000000
0.859068 -4.031598 -1.488460 70.000000
0.846696 -4.034214 -1.488459 81.000000
0.995846 -4.739524 -1.488318 43.000000
0.979368 -4.733222 -1.485299 47.000000
0.835646 -4.043216 -1.490899 50.000000
0.821555 -4.037496 -1.487759 60.000000
0.966558 -4.744611 -1.488014 41.000000
0.808244 -4.035402 -1.486014 57.000000
0.952561 -4.750357 -1.488917 39.000000
0.938723 -4.756999 -1.490123 35.000000
0.796950 -4.043379 -1.488105 57.000000
0.784899 -4.047645 -1.488801 80.000000
0.925945 -4.769214 -1.493139 47.000000
0.774413 -4.060160 -1.492637 69.000000
0.908087 -4.755176 -1.487706 42.000000
0.896843 -4.775742 -1.493438 41.000000
0.762473 -4.065279 -1.493682 92.000000
0.752211 -4.079580 -1.498215 76.000000
0.886867 -4.803783 -1.501583 30.000000
0.865480 -4.769898 -1.489814 50.000000
0.740362 -4.085557 -1.499609 65.000000
0.851346 -4.775346 -1.490718 49.000000
0.726345 -4.079505 -1.496469 90.000000
0.714150 -4.083560 -1.497165 69.000000
0.837845 -4.784508 -1.492829 44.000000
0.700825 -4.081113 -1.495420 71.000000
0.822840 -4.785177 -1.492224 42.000000
0.688302 -4.083243 -1.495419 57.000000
0.807045 -4.781098 -1.490110 53.000000
0.678377 -4.101054 -1.501347 72.000000
0.795962 -4.805183 -1.497049 38.000000
0.662786 -4.084614 -1.494371 71.000000
0.781064 -4.806661 -1.496746 48.000000
0.766015 -4.807152 -1.496141 57.000000
0.649220 -4.080149 -1.491928 66.000000
0.750380 -4.803827 -1.494329 44.000000
0.637858 -4.089529 -1.494717 59.000000
0.625168 -4.090540 -1.494367 81.000000
0.744163 -4.861707 -1.512131 26.000000
0.614701 -4.106341 -1.499598 78.000000
0.723441 -4.825311 -1.499758 56.000000
0.607411 -4.144371 -1.513199 46.000000
0.708080 -4.823734 -1.498550 46.000000
0.702783 -4.891940 -1.519671 30.000000
0.592695 -4.132299 -1.507967 71.000000
0.680730 -4.844037 -1.503677 36.000000
0.580146 -4.135026 -1.508315 75.000000
0.668857 -4.867825 -1.510616 39.000000
0.565672 -4.123787 -1.503431 70.000000
0.648710 -4.831114 -1.498244 42.000000
0.555514 -4.144080 -1.510405 61.000000
0.636122 -4.850096 -1.503674 42.000000
0.542799 -4.145764 -1.510404 79.000000
0.622332 -4.860535 -1.506388 48.000000
0.530078 -4.147409 -1.510403 67.000000
0.518166 -4.155526 -1.512844 60.000000
0.607655 -4.864313 -1.506991 44.000000
0.504509 -4.149653 -1.510053 61.000000
0.592268 -4.862368 -1.505783 42.000000
0.579150 -4.879310 -1.510609 48.000000
0.494097 -4.170725 -1.517376 56.000000
0.478394 -4.147084 -1.507958 59.000000
0.566044 -4.897163 -1.515738 32.000000
0.468185 -4.170883 -1.516328 69.000000
0.547601 -4.868560 -1.506081 39.000000
0.532767 -4.871164 -1.506382 54.000000
0.455184 -4.170436 -1.515630 64.000000
0.444171 -4.188588 -1.521907 52.000000
0.519033 -4.884151 -1.510001 40.000000
0.432378 -4.200186 -1.525742 53.000000
0.501498 -4.861064 -1.502155 43.000000
0.490104 -4.897679 -1.513319 32.000000
0.417531 -4.181909 -1.518417 62.000000
0.405786 -4.194364 -1.522602 62.000000
0.472955 -4.877333 -1.506378 53.000000
0.459599 -4.895847 -1.511808 37.000000
0.392216 -4.188123 -1.519811 60.000000
0.443540 -4.885840 -1.508186 39.000000
0.378604 -4.180906 -1.516671 50.000000
0.430053 -4.904272 -1.513616 38.000000
0.365940 -4.183915 -1.517368 66.000000
0.352866 -4.182216 -1.516321 59.000000
0.415409 -4.910318 -1.515124 49.000000
0.338968 -4.170201 -1.511437 60.000000
0.401741 -4.928673 -1.520554 36.000000
0.386993 -4.934634 -1.522062 33.000000
0.326467 -4.174959 -1.512831 59.000000
0.374439 -4.970023 -1.532924 30.000000
0.313447 -4.173136 -1.511785 71.000000
0.301927 -4.191839 -1.518411 67.000000
0.356366 -4.932161 -1.520552 46.000000
0.288808 -4.189005 -1.517015 69.000000
0.340904 -4.928475 -1.519042 48.000000
0.326729 -4.943767 -1.523567 29.000000
0.276450 -4.197352 -1.519804 53.000000
0.311200 -4.939037 -1.521756 38.000000
0.262688 -4.184150 -1.514572 60.000000
0.249515 -4.179322 -1.512479 57.000000
0.294846 -4.919983 -1.515419 53.000000
0.279697 -4.919912 -1.515116 47.000000
0.236799 -4.181939 -1.513176 63.000000
0.264345 -4.915987 -1.513606 43.000000
0.223919 -4.181710 -1.512826 74.000000
0.211327 -4.187057 -1.514570 65.000000
0.249215 -4.915822 -1.513304 48.000000
0.198705 -4.192366 -1.516313 81.000000
0.235546 -4.946084 -1.522657 50.000000
0.186260 -4.202318 -1.519800 61.000000
0.219220 -4.921068 -1.514510 47.000000
0.173717 -4.211298 -1.522938 52.000000
0.204162 -4.922669 -1.514810 45.000000
0.160978 -4.216493 -1.524681 58.000000
0.190789 -4.968048 -1.528991 37.000000
0.147810 -4.210410 -1.522240 59.000000
0.175345 -4.962893 -1.527180 31.000000
0.159191 -4.934820 -1.518127 40.000000
0.134954 -4.212716 -1.522937 63.000000
0.122358 -4.224352 -1.527121 61.000000
0.145060 -4.969593 -1.528989 38.000000
0.129413 -4.954765 -1.524161 44.000000
0.109350 -4.222834 -1.526423 58.000000
0.114700 -4.976107 -1.530798 33.000000
0.096438 -4.225022 -1.527120 60.000000
0.989919 -4.330818 -1.485733 57.000000
0.083439 -4.223424 -1.526422 62.000000
0.099126 -4.961184 -1.525970 37.000000
0.974352 -4.323686 -1.482148 97.000000
0.070466 -4.222723 -1.526073 66.000000
0.083792 -4.954792 -1.523857 48.000000
0.057460 -4.219171 -1.524677 53.000000
0.963533 -4.337733 -1.486057 74.000000
0.068592 -4.955025 -1.523856 41.000000
0.053380 -4.954258 -1.523554 51.000000
0.044598 -4.226824 -1.527467 49.000000
0.951228 -4.345286 -1.487685 65.000000
0.031624 -4.226003 -1.527118 55.000000
0.940671 -4.361125 -1.492246 69.000000
0.038136 -4.948678 -1.521743 54.000000
0.926114 -4.358440 -1.490290 77.000000
0.018685 -4.231703 -1.529210 54.000000
0.022932 -4.944005 -1.520234 44.000000
0.916980 -4.381623 -1.497457 69.000000
0.007824 -4.977420 -1.530794 35.000000
0.005711 -4.236426 -1.530953 66.000000
0.904863 -4.390899 -1.499736 66.000000
0.890641 -4.389946 -1.498432 76.000000
0.877353 -4.393586 -1.498757 62.000000
0.863690 -4.395328 -1.498431 67.000000
0.849845 -4.396100 -1.497778 69.000000
0.834247 -4.387538 -1.493868 67.000000
0.822166 -4.397512 -1.496474 67.000000
0.809182 -4.402803 -1.497450 71.000000
0.798178 -4.419223 -1.502337 84.000000
0.785767 -4.428168 -1.504616 69.000000
0.772179 -4.430558 -1.504616 68.000000
0.758108 -4.430110 -1.503637 65.000000
0.743891 -4.428683 -1.502334 73.000000
0.729385 -4.425346 -1.500379 77.000000
0.717605 -4.438764 -1.504287 75.000000
0.702514 -4.431605 -1.501029 62.000000
0.691368 -4.449624 -1.506567 51.000000
0.679128 -4.461071 -1.509824 63.000000
0.664193 -4.454717 -1.506891 71.000000
0.653236 -4.475446 -1.513406 60.000000
0.639238 -4.475556 -1.512754 83.000000
0.626934 -4.487797 -1.516338 75.000000
0.613164 -4.489699 -1.516337 58.000000
0.598022 -4.481248 -1.512753 70.000000
0.583909 -4.480248 -1.511775 65.000000
0.570399 -4.483895 -1.512426 48.000000
0.555486 -4.476240 -1.509168 62.000000
0.543891 -4.495758 -1.515357 68.000000
0.529548 -4.492709 -1.513728 60.000000
0.514801 -4.485858 -1.510796 60.000000
0.502181 -4.497752 -1.514379 65.000000
0.487774 -4.493631 -1.512423 53.000000
0.475362 -4.508271 -1.516984 71.000000
0.460767 -4.502182 -1.514378 70.000000
0.447138 -4.505456 -1.515029 71.000000
0.433135 -4.504924 -1.514377 69.000000
0.418447 -4.496816 -1.511119 52.000000
0.405236 -4.504670 -1.513399 73.000000
0.393356 -4.528500 -1.521217 49.000000
0.378760 -4.521204 -1.518285 74.000000
0.366015 -4.536482 -1.523172 74.000000
0.352747 -4.546067 -1.526104 59.000000
0.338522 -4.543355 -1.524800 69.000000
0.325247 -4.553803 -1.528058 50.000000
0.311275 -4.554780 -1.528057 63.000000
0.296392 -4.541560 -1.523171 54.000000
0.283670 -4.562265 -1.530012 59.000000
0.269234 -4.555562 -1.527405 58.000000
0.255466 -4.560142 -1.528708 52.000000
0.240985 -4.551462 -1.525450 57.000000
0.227390 -4.559735 -1.528056 47.000000
0.212925 -4.550021 -1.524472 50.000000
0.199046 -4.552542 -1.525124 49.000000
0.185229 -4.556909 -1.526427 61.000000
0.171699 -4.569738 -1.530662 71.000000
0.157584 -4.567408 -1.529684 67.000000
0.143917 -4.579210 -1.533593 64.000000
0.129584 -4.569233 -1.530010 60.000000
0.115658 -4.573390 -1.531313 60.000000
0.101547 -4.569942 -1.530010 58.000000
0.087424 -4.564559 -1.528055 68.000000
0.073706 -4.583713 -1.534571 63.000000
0.059553 -4.576354 -1.531965 56.000000
0.045649 -4.591640 -1.537177 70.000000
0.031557 -4.590814 -1.536850 46.000000
0.017457 -4.585216 -1.534894 49.000000
0.003390 -4.588084 -1.535870 61.000000
