# .PCD v0.7 - Point Cloud Data file format
VERSION 0.7
FIELDS x y z intensity
SIZE 4 4 4 4
TYPE F F F F
COUNT 1 1 1 1
WIDTH 57
HEIGHT 1
VIEWPOINT 0 0 0 1 0 0 0
POINTS 57
DATA ascii
-7.011730 -4.499926 8.459142 5.000000
-7.018394 -4.473855 8.450604 15.000000
-7.854175 -4.977717 8.503525 6.000000
-7.044528 -4.429949 8.449181 8.000000
-7.859407 -4.947293 8.492743 11.000000
-7.056300 -4.407195 8.447046 5.000000
-7.873297 -4.922370 8.491396 6.000000
-7.098169 -4.373026 8.464831 5.000000
-7.900842 -4.872407 8.488700 6.000000
-7.094173 -4.340584 8.444201 6.000000
-7.911974 -4.845825 8.484657 7.000000
-7.105657 -4.317699 8.442065 5.000000
-7.921124 -4.818067 8.478593 8.000000
-7.135115 -4.305683 8.461274 9.000000
-7.139856 -4.278709 8.451313 5.000000
-7.932710 -4.791827 8.475224 7.000000
-7.146309 -4.252825 8.443487 4.000000
-7.963871 -4.744190 8.477243 5.000000
-7.163559 -4.233380 8.448466 8.000000
-7.919252 -4.684731 8.414580 5.000000
-7.166213 -4.205330 8.436373 6.000000
-7.180298 -4.184029 8.437795 11.000000
-7.981369 -4.688488 8.465116 4.000000
-7.986145 -4.658389 8.455008 7.000000
-7.986336 -4.625711 8.440184 7.000000
-7.202794 -4.138133 8.434237 9.000000
-7.218509 -4.117754 8.437794 10.000000
-7.227442 -4.093505 8.433524 8.000000
-7.238132 -4.070275 8.431389 11.000000
-7.261745 -4.025097 8.429966 10.000000
-7.182076 -4.993591 8.533691 5.000000
-7.161965 -4.947106 8.491855 4.000000
-7.177703 -4.925512 8.492551 10.000000
-7.200485 -4.908709 8.501615 11.000000
-7.198295 -4.874946 8.481392 7.000000
-7.220359 -4.857633 8.489759 7.000000
-7.226288 -4.829485 8.479300 7.000000
-7.228528 -4.798971 8.464655 8.000000
-7.253644 -4.751774 8.459773 9.000000
-7.356461 -4.596408 8.462556 5.000000
-7.419361 -4.478938 8.454881 5.000000
-7.478131 -4.452005 8.490439 6.000000
-7.470065 -4.385366 8.450692 3.000000
-7.610704 -4.312257 8.533663 11.000000
-7.612653 -4.282565 8.521111 10.000000
-7.634522 -4.264074 8.530872 4.000000
-7.635029 -4.233684 8.516925 5.000000
-7.644844 -4.208510 8.513437 5.000000
-7.660239 -4.186407 8.516225 9.000000
-7.664226 -4.158102 8.506461 15.000000
-7.681368 -4.136943 8.511341 13.000000
-7.697188 -4.115042 8.514827 6.000000
-7.730680 -4.102481 8.537835 11.000000
-7.750845 -4.082746 8.546201 10.000000
-7.781763 -4.068566 8.566422 6.000000
-7.791666 -4.043350 8.563630 6.000000
-7.798300 -4.016473 8.557354 14.000000
