# .PCD v0.7 - Point Cloud Data file format
VERSION 0.7
FIELDS x y z intensity
SIZE 4 4 4 4
TYPE F F F F
COUNT 1 1 1 1
WIDTH 49
HEIGHT 1
VIEWPOINT 0 0 0 1 0 0 0
POINTS 49
DATA ascii
-7.080769 -5.999969 8.487339 6.000000
-7.078236 -5.960598 8.462410 7.000000
-7.123120 -5.961144 8.494079 5.000000
-7.116385 -5.918464 8.464433 8.000000
-7.137928 -5.899424 8.468476 13.000000
-7.139439 -5.863889 8.448937 9.000000
-7.157397 -5.841953 8.448938 8.000000
-7.159797 -5.807392 8.430746 9.000000
-7.182759 -5.789568 8.436810 9.000000
-7.203949 -5.770273 8.440854 7.000000
-7.215261 -5.743077 8.433443 8.000000
-7.234588 -5.722284 8.435464 8.000000
-7.251531 -5.699601 8.434792 6.000000
-7.264327 -5.673682 8.429402 8.000000
-7.299007 -5.628994 8.429403 11.000000
-7.309794 -5.601624 8.421991 13.000000
-7.327535 -5.579616 8.422666 9.000000
-7.346977 -5.558888 8.425362 7.000000
-7.358094 -5.531876 8.418623 8.000000
-7.365563 -5.502193 8.407843 4.000000
-7.442094 -5.418336 8.418625 5.000000
-7.721034 -5.163250 8.494092 14.000000
-7.761823 -5.121876 8.504199 8.000000
-7.780592 -5.100060 8.507568 6.000000
-7.821614 -5.024626 8.501504 8.000000
-7.851943 -5.010144 8.517674 7.000000
-7.729799 -5.999280 8.592614 10.000000
-7.767242 -5.990226 8.613697 7.000000
-7.796338 -5.974596 8.625554 4.000000
-7.800263 -5.939715 8.609743 5.000000
-7.875711 -5.883408 8.632800 6.000000
-7.881640 -5.850253 8.619623 6.000000
-7.888652 -5.818009 8.607764 8.000000
-7.013399 -5.202621 8.519054 6.000000
-7.902825 -5.791109 8.603810 5.000000
-7.011436 -5.167903 8.497438 5.000000
-7.034781 -5.151866 8.506503 4.000000
-7.912605 -5.723996 8.576139 6.000000
-7.033161 -5.117614 8.485583 5.000000
-7.941742 -5.708026 8.588656 3.000000
-7.052318 -5.098527 8.489766 6.000000
-7.927372 -5.660913 8.554397 10.000000
-7.066764 -5.076027 8.488372 6.000000
-7.941023 -5.633952 8.550443 16.000000
-7.083474 -5.055152 8.489765 6.000000
-7.956427 -5.608260 8.548467 4.000000
-7.099537 -5.033807 8.490462 11.000000
-7.987160 -5.593307 8.562960 8.000000
-7.106156 -5.005812 8.480002 13.000000
