# .PCD v0.7 - Point Cloud Data file format
VERSION 0.7
FIELDS x y z intensity
SIZE 4 4 4 4
TYPE F F F F
COUNT 1 1 1 1
WIDTH 1254
HEIGHT 1
VIEWPOINT 0 0 0 1 0 0 0
POINTS 1254
DATA ascii
-7.854109 0.921889 5.062076 6.000000
-7.700840 2.725767 5.404712 5.000000
-5.129205 0.538422 5.017106 17.000000
-8.087901 0.978097 3.158639 23.000000
-8.060074 0.967930 4.113731 15.000000
-7.752191 2.649691 3.805747 20.000000
-7.473641 2.680296 5.852044 6.000000
-7.999555 0.951190 4.602145 4.000000
-8.085495 0.976432 3.629651 14.000000
-5.706316 0.621270 5.041378 15.000000
-6.569912 0.738745 5.239619 7.000000
-7.825124 2.730994 4.361222 5.000000
-8.061720 0.993236 4.115291 14.000000
-7.426212 0.880325 5.337554 8.000000
-7.793869 2.751645 4.889607 4.000000
-5.108738 0.552334 4.997673 5.000000
-8.085382 1.001510 3.630160 18.000000
-7.977106 0.973354 4.589937 15.000000
-7.736650 2.670743 3.800919 25.000000
-7.942610 2.716110 3.407780 12.000000
-8.063789 1.000029 3.149540 28.000000
-5.731346 0.642239 5.064849 13.000000
-7.460810 0.908017 5.363803 9.000000
-7.795491 2.779202 4.894706 5.000000
-7.995842 1.000675 4.601696 9.000000
-8.027624 1.020211 3.135687 31.000000
-5.740019 0.661376 5.073653 11.000000
-7.930182 2.738793 3.404831 7.000000
-7.741554 2.698955 3.806248 22.000000
-8.058887 1.017950 4.114545 15.000000
-8.077064 1.025494 3.626951 18.000000
-7.864744 0.972470 5.070979 3.000000
-5.134838 0.571569 5.024652 13.000000
-7.698898 2.778659 5.412642 5.000000
-7.818748 2.755630 4.361110 14.000000
-7.836345 2.789039 4.374623 7.000000
-8.070463 1.049745 3.624599 18.000000
-6.602421 0.805032 5.269185 5.000000
-7.878667 0.999014 5.081152 4.000000
-8.043602 1.041072 4.107461 10.000000
-7.480811 0.934128 5.379543 13.000000
-7.987700 1.039750 3.120418 31.000000
-5.741200 0.679705 5.075824 11.000000
-7.743770 2.726371 3.810334 20.000000
-5.147440 0.589401 5.038286 9.000000
-7.979257 1.023529 4.592999 10.000000
-7.925508 2.764274 3.405324 5.000000
-7.999398 1.066171 3.125546 27.000000
-8.035303 1.065095 4.104030 12.000000
-7.746733 2.754154 3.814850 19.000000
-5.762310 0.700606 5.095969 5.000000
-7.497489 2.794438 5.892220 5.000000
-8.068303 1.074605 3.624306 26.000000
-7.925972 2.791647 3.408095 9.000000
-5.157156 0.606983 5.049109 9.000000
-7.903762 1.052039 5.099844 4.000000
-7.922018 2.817423 3.408939 9.000000
-8.070600 1.100044 3.626027 19.000000
-5.152730 0.622804 5.045843 10.000000
-7.755583 2.784107 3.822297 20.000000
-5.733774 0.715140 5.071503 10.000000
-7.980586 1.088346 3.118628 28.000000
-7.951046 1.069657 4.578591 7.000000
-7.673456 2.850041 5.409032 6.000000
-8.028713 1.089269 4.101475 7.000000
-8.029112 1.114396 4.102543 14.000000
-7.920601 2.844130 3.410900 12.000000
-5.808808 0.743326 5.140174 5.000000
-7.828797 2.867802 4.381342 5.000000
-7.748190 2.808163 3.821675 26.000000
-8.061989 1.123928 3.622812 22.000000
-7.511087 2.852709 5.914030 5.000000
-7.997678 1.115556 3.125883 25.000000
-5.172941 0.641803 5.067176 12.000000
-7.963451 1.096326 4.586839 8.000000
-5.332085 2.093985 5.175521 7.000000
-8.056003 1.148212 3.620851 10.000000
-7.843469 2.900624 4.393414 6.000000
-7.865356 1.096284 5.077226 7.000000
-7.991627 1.139546 3.124065 22.000000
-5.448762 0.712498 4.817678 6.000000
-6.680547 0.899507 5.337547 6.000000
-5.171927 0.658143 5.067428 8.000000
-8.017082 1.137781 4.097264 9.000000
-7.761922 2.840146 3.831662 14.000000
-7.917336 2.870260 3.412126 9.000000
-7.947458 1.119024 4.578627 6.000000
-7.833218 2.924183 4.391445 6.000000
-6.697357 0.923127 5.352603 10.000000
-8.004094 1.160997 4.091544 13.000000
-5.340322 0.714629 4.721418 15.000000
-7.637309 2.917230 5.398165 3.000000
-7.996552 1.165193 3.126623 28.000000
-7.917443 2.897715 3.414874 15.000000
-7.928819 1.141280 4.568933 10.000000
-5.176491 0.675272 5.073312 9.000000
-7.760255 2.866530 3.834033 12.000000
-5.311633 2.104915 5.160617 12.000000
-8.049934 1.172498 3.618902 23.000000
-8.050123 1.197670 3.619786 9.000000
-6.667023 0.939937 5.329465 6.000000
-7.757681 2.892560 3.835949 13.000000
-5.173976 0.691413 5.072142 6.000000
-7.813851 2.944175 4.384297 8.000000
-7.635731 2.943665 5.402106 4.000000
-7.706265 2.935596 4.868003 3.000000
-5.327281 0.729708 4.710957 22.000000
-7.915751 2.924496 3.416832 11.000000
-8.001410 1.190831 3.129146 20.000000
-7.857420 1.144747 5.074711 3.000000
-7.983181 1.212898 3.122568 35.000000
-7.592289 2.953562 5.376097 4.000000
-7.919663 1.189721 4.565942 9.000000
-5.184797 0.709452 5.084320 7.000000
-7.678429 2.951879 4.854658 5.000000
-8.040324 1.221290 3.616152 15.000000
-7.845057 1.167643 5.067999 4.000000
-6.706101 0.966920 5.362621 4.000000
-7.990283 1.209015 4.086395 10.000000
-7.913112 2.950951 3.418398 9.000000
-5.309032 0.743942 4.695833 40.000000
-7.765185 2.922473 3.842928 7.000000
-7.734533 2.937789 3.830877 15.000000
-7.994325 1.239582 3.127631 22.000000
-8.034052 1.245461 3.614168 16.000000
-7.680121 2.979712 4.860256 7.000000
-7.911117 1.213324 4.562205 8.000000
-5.201180 0.728410 5.102124 9.000000
-7.913833 2.978766 3.421484 9.000000
-5.305508 0.760297 4.694019 32.000000
-6.721161 0.990532 5.376388 12.000000
-7.555981 1.135004 5.445445 7.000000
-7.982384 1.232855 4.083372 10.000000
-7.804615 2.995444 4.386838 7.000000
-7.989350 1.259109 4.088092 8.000000
-5.310783 0.778013 4.700194 37.000000
-7.914467 1.238845 4.565470 6.000000
-8.031301 1.270221 3.613837 10.000000
-7.999855 1.265481 3.130526 14.000000
-7.553583 1.158643 5.445341 11.000000
-6.714542 1.010914 5.372652 6.000000
-7.984173 1.287883 3.125041 18.000000
-7.916898 1.264219 4.568209 7.000000
-5.313065 0.795282 4.703691 48.000000
-7.972519 1.281460 4.080511 12.000000
-6.738706 1.036130 5.393908 7.000000
-5.202099 0.761827 5.106102 16.000000
-8.029386 1.295086 3.613888 14.000000
-7.561543 1.183918 5.452810 10.000000
-7.972322 1.306512 4.081554 8.000000
-8.029201 1.320239 3.614743 18.000000
-5.209877 0.779680 5.115452 6.000000
-7.566227 1.208713 5.457927 8.000000
-7.915837 1.289031 4.568937 6.000000
-7.997834 1.315151 3.131162 17.000000
-6.746614 1.058870 5.402017 5.000000
-5.319724 0.813268 4.711166 52.000000
-7.997624 1.340163 3.131844 13.000000
-7.967650 1.330840 4.080333 12.000000
-8.019039 1.343720 3.611106 8.000000
-5.218995 0.797828 5.126209 7.000000
-7.907856 1.312702 4.565683 12.000000
-5.327056 0.831437 4.719310 28.000000
-6.759060 1.082451 5.413881 12.000000
-7.573226 1.233968 5.464802 14.000000
-8.025875 1.370180 3.615257 12.000000
-7.848928 1.317495 5.079824 13.000000
-6.783728 1.108228 5.435759 4.000000
-7.564128 1.256579 5.460005 19.000000
-8.003751 1.366348 3.135081 16.000000
-5.326210 0.848338 4.720151 43.000000
-7.967280 1.355955 4.081399 12.000000
-8.029941 1.396189 3.618162 9.000000
-5.389417 0.876075 4.778798 20.000000
-7.564570 1.280791 5.462203 12.000000
-7.917275 1.364509 4.574152 7.000000
-7.965086 1.380743 4.081540 14.000000
-8.011636 1.392887 3.139025 20.000000
-6.826780 1.137325 5.472616 6.000000
-7.840518 1.365896 5.077744 5.000000
-6.832068 1.160062 5.478815 6.000000
-8.019448 1.419440 3.142934 21.000000
-7.973356 1.407388 4.087097 16.000000
-7.560166 1.304121 5.460865 14.000000
-8.026755 1.420884 3.617763 10.000000
-5.392146 0.893770 4.782922 23.000000
-7.898851 1.386265 4.564883 7.000000
-5.394072 0.911381 4.786390 20.000000
-7.889735 1.409668 4.561114 9.000000
-7.837442 1.390307 5.077514 9.000000
-8.026251 1.445915 3.146492 26.000000
-7.970137 1.432027 4.086763 6.000000
-8.014510 1.443943 3.613292 10.000000
-7.572451 1.330494 5.471806 7.000000
-8.014741 1.469347 3.614565 12.000000
-8.033869 1.472663 3.150434 31.000000
-6.872339 1.211203 5.515618 9.000000
-7.965948 1.456542 4.085999 11.000000
-7.896725 1.436095 4.566837 4.000000
-7.562272 1.352891 5.466414 9.000000
-5.495249 0.946830 4.879558 13.000000
-6.885815 1.235775 5.528697 7.000000
-8.041405 1.499450 3.154357 20.000000
-7.568795 1.378350 5.473269 10.000000
-8.010417 1.493888 3.613778 6.000000
-7.883193 1.458677 4.560584 10.000000
-7.956514 1.505264 4.083947 9.000000
-8.037894 1.524108 3.153893 12.000000
-7.568087 1.402442 5.474834 15.000000
-7.997975 1.516791 3.609280 13.000000
-6.021325 1.079770 5.358692 8.000000
-6.027131 1.100260 5.366062 7.000000
-7.871298 1.506540 4.556983 10.000000
-7.840059 1.490968 5.086862 4.000000
-7.571280 1.427332 5.479323 18.000000
-7.949505 1.529161 4.081776 8.000000
-8.037959 1.549500 3.154885 15.000000
-7.983672 1.539297 3.603973 11.000000
-6.024766 1.119292 5.366149 11.000000
-8.039754 1.575332 3.156632 10.000000
-7.945023 1.553614 4.080997 5.000000
-7.988973 1.565741 3.607681 16.000000
-7.585519 1.454508 5.492012 7.000000
-7.838804 1.541052 5.090192 3.000000
-7.974516 1.588204 3.602396 12.000000
-7.864163 1.555467 4.556428 6.000000
-5.344625 0.990182 5.271447 5.000000
-8.045125 1.601922 3.159814 14.000000
-7.944839 1.578929 4.082474 9.000000
-6.046569 1.143041 5.388138 6.000000
-7.856273 1.578959 4.553607 21.000000
-5.304142 0.999542 5.233002 3.000000
-8.046784 1.627726 3.161497 15.000000
-7.598654 1.505993 5.506223 7.000000
-6.937469 1.357030 5.582068 4.000000
-7.941988 1.603638 4.082541 21.000000
-6.044116 1.162069 5.388176 11.000000
-7.970752 1.612739 3.601961 11.000000
-6.948189 1.381604 5.593204 4.000000
-8.046535 1.653178 3.162454 17.000000
-7.603124 1.531374 5.511843 13.000000
-7.971378 1.638211 3.603565 19.000000
-7.861046 1.605087 4.558252 9.000000
-7.947783 1.630183 4.087141 11.000000
-6.034274 1.179615 5.381576 15.000000
-7.612239 1.557882 5.521005 8.000000
-7.948225 1.655747 4.089065 10.000000
-8.056208 1.680870 3.167437 19.000000
-7.872486 1.632786 4.566922 7.000000
-7.972786 1.663978 3.605621 10.000000
-6.961845 1.406971 5.606874 8.000000
-6.954010 1.427916 5.603061 14.000000
-7.953817 1.682460 4.093701 6.000000
-7.970544 1.688992 3.606040 9.000000
-6.089053 1.230263 5.436138 7.000000
-7.607763 1.581580 5.520244 7.000000
-8.056675 1.706660 3.168794 16.000000
-6.070237 1.246028 5.421562 10.000000
-6.950740 1.449732 5.602948 11.000000
-7.950649 1.707225 4.093753 12.000000
-7.624694 1.609822 5.535178 4.000000
-7.977174 1.715888 3.610483 14.000000
-8.051628 1.731182 3.167928 16.000000
-7.857838 1.680190 4.562302 5.000000
-7.813460 1.661638 5.084517 7.000000
-5.351801 1.095868 5.292746 6.000000
-7.625662 1.634694 5.538439 9.000000
-7.855510 1.704930 4.562944 5.000000
-8.050149 1.756497 3.168502 17.000000
-6.994749 1.481840 5.641511 13.000000
-7.965893 1.738854 3.606766 10.000000
-7.946537 1.731787 4.093345 7.000000
-6.101851 1.272541 5.452766 4.000000
-5.338964 1.110593 5.282391 9.000000
-6.104822 1.293098 5.458120 4.000000
-7.958080 1.762650 3.604721 17.000000
-7.859843 1.731273 4.567605 8.000000
-7.946666 1.757400 4.095242 12.000000
-8.051291 1.782514 3.170200 22.000000
-7.011886 1.508408 5.658266 7.000000
-8.042345 1.806285 3.167935 15.000000
-7.860695 1.756913 4.570287 13.000000
-7.632814 1.685933 5.549129 5.000000
-7.955526 1.787668 3.605133 10.000000
-7.787343 1.731570 5.074511 5.000000
-7.948441 1.783457 4.098055 6.000000
-5.369947 1.134872 5.316226 6.000000
-6.976292 1.523322 5.631987 6.000000
-5.369561 1.152332 5.318462 9.000000
-6.085761 1.328686 5.446247 8.000000
-7.948484 1.811559 3.603450 14.000000
-7.931933 1.805202 4.091304 14.000000
-7.635912 1.711440 5.554132 5.000000
-8.040628 1.831618 3.168502 13.000000
-7.861508 1.782482 4.572910 7.000000
-8.035206 1.856089 3.167614 15.000000
-7.976930 1.843817 3.618045 5.000000
-7.093266 1.595774 5.733368 5.000000
-7.857176 1.806869 4.572541 5.000000
-5.378864 1.171990 5.330507 4.000000
-6.117043 1.355696 5.477422 4.000000
-7.924920 1.829105 4.089524 16.000000
-7.919069 1.855684 3.593181 11.000000
-7.855273 1.831915 4.573697 5.000000
-7.921276 1.853876 4.089588 16.000000
-7.675058 1.770449 5.588616 6.000000
-5.391546 1.192560 5.346077 8.000000
-8.036035 1.882129 3.169289 14.000000
-7.806510 1.811937 5.094682 4.000000
-7.673099 1.795115 5.590150 5.000000
-8.025893 1.905584 3.166646 8.000000
-7.917542 1.878674 4.089666 7.000000
-7.910015 1.879101 3.590727 11.000000
-7.793869 1.834379 5.089008 7.000000
-5.393027 1.210662 5.350437 5.000000
-7.825349 1.867465 5.112461 6.000000
-7.910298 1.902544 4.087891 11.000000
-8.026577 1.931597 3.168288 19.000000
-7.852079 1.882222 4.576486 8.000000
-7.909791 1.904593 3.592298 11.000000
-5.397260 1.229389 5.357570 4.000000
-5.410466 1.250287 5.373798 6.000000
-8.031715 1.958727 3.171710 19.000000
-7.909057 1.927863 4.089259 14.000000
-7.695883 1.850893 5.612912 3.000000
-7.885567 1.924099 3.582863 9.000000
-7.857556 1.909097 4.582057 7.000000
-7.691332 1.875022 5.612660 4.000000
-8.033126 1.985052 3.173717 15.000000
-5.443678 1.276196 5.410364 9.000000
-7.875445 1.947114 3.579969 11.000000
-6.191787 1.474483 5.560334 3.000000
-7.912034 1.954343 4.092917 12.000000
-7.149535 1.726029 5.795003 5.000000
-7.857276 1.968079 3.573434 12.000000
-8.027206 2.009592 3.172858 10.000000
-5.440744 1.293502 5.410498 8.000000
-7.845459 1.957365 4.579865 8.000000
-7.817913 1.968034 5.118750 4.000000
-7.917716 2.007440 4.100232 5.000000
-7.668606 1.919844 5.602262 8.000000
-8.027553 2.035706 3.174490 10.000000
-7.832880 1.987301 3.564028 16.000000
-7.852343 1.984807 4.586442 8.000000
-7.849079 2.009627 4.587030 6.000000
-7.920460 2.033972 4.103841 8.000000
-8.025126 2.061083 3.175010 19.000000
-7.802442 1.989639 5.111378 8.000000
-7.827903 2.011449 3.563534 19.000000
-7.798287 2.014215 5.111584 4.000000
-7.922236 2.060352 4.107016 7.000000
-7.641749 1.963318 5.588891 8.000000
-5.469052 1.354793 5.448633 10.000000
-8.028917 2.088181 3.178069 16.000000
-7.816653 2.033981 3.560217 14.000000
-7.818559 2.060060 3.563010 19.000000
-7.833039 2.056901 4.582805 4.000000
-7.915295 2.084479 4.105690 10.000000
-8.026297 2.113662 3.178623 22.000000
-5.460361 1.370746 5.443142 6.000000
-7.920339 2.111854 4.110675 12.000000
-5.486842 1.395895 5.473361 7.000000
-7.773463 2.059003 5.101228 5.000000
-6.227989 1.607139 5.613242 6.000000
-7.818622 2.085679 3.564979 22.000000
-8.028102 2.140360 3.180966 20.000000
-6.219802 1.625629 5.609215 3.000000
-7.640203 2.038811 5.597950 5.000000
-7.207183 1.907244 5.866666 5.000000
-7.756122 2.079902 5.092770 5.000000
-7.821274 2.111981 3.568124 20.000000
-8.054134 2.173714 3.192981 4.000000
-7.928764 2.140162 4.117422 10.000000
-5.474623 1.410901 5.464332 8.000000
-7.228126 1.936964 5.887627 4.000000
-8.028800 2.192990 3.184494 12.000000
-7.918171 2.163292 4.114248 12.000000
-7.835273 2.141538 3.576553 14.000000
-6.212995 1.644496 5.606521 5.000000
-7.827151 2.165049 3.574864 27.000000
-8.022258 2.217510 3.183595 26.000000
-7.237613 1.963749 5.899273 8.000000
-7.743922 2.127914 5.091010 4.000000
-7.910059 2.187163 4.112459 10.000000
-7.840940 2.194790 3.583302 26.000000
-7.823070 2.183407 4.590739 8.000000
-8.033594 2.247114 3.189872 7.000000
-7.688024 2.128644 5.644196 3.000000
-7.900169 2.210493 4.109754 11.000000
-6.231149 1.711993 5.634205 8.000000
-7.805830 2.204365 4.583376 6.000000
-7.912529 2.240177 4.118743 4.000000
-8.026020 2.271322 3.188564 7.000000
-7.849376 2.223064 3.589271 16.000000
-7.878518 2.256438 4.103380 7.000000
-8.012996 2.293940 3.185101 13.000000
-7.853324 2.250135 3.593209 17.000000
-7.698312 2.182939 5.659246 3.000000
-7.231001 2.034469 5.905474 9.000000
-7.791870 2.226215 4.577997 5.000000
-7.851896 2.275753 3.594743 21.000000
-7.213085 2.053571 5.894702 13.000000
-7.800314 2.254696 4.586022 5.000000
-8.007939 2.318938 3.184903 23.000000
-7.875267 2.281681 4.104282 8.000000
-6.290413 1.770995 5.696305 4.000000
-7.826746 2.294288 3.585320 30.000000
-8.003708 2.344174 3.185049 12.000000
-7.790355 2.277765 4.583135 5.000000
-6.282443 1.789866 5.692938 7.000000
-7.229683 2.082740 5.912529 5.000000
-7.767746 2.290127 5.127078 5.000000
-7.769540 2.297484 4.573785 8.000000
-7.833080 2.322177 3.590456 21.000000
-7.866005 2.331311 4.104674 9.000000
-7.665829 2.250732 5.646684 5.000000
-7.997630 2.368821 3.184447 14.000000
-7.995948 2.394801 3.185627 9.000000
-7.854875 2.354120 4.101464 14.000000
-7.794394 2.331032 4.591648 7.000000
-7.841949 2.350913 3.596793 15.000000
-7.776397 2.318791 5.136365 3.000000
-7.769601 2.342896 5.135458 3.000000
-6.289123 1.855547 5.711223 4.000000
-7.785037 2.354323 4.589253 6.000000
-7.998609 2.422244 3.188638 13.000000
-7.832338 2.374125 3.594661 16.000000
-7.250148 2.186735 5.946414 7.000000
-7.849390 2.405066 4.104125 10.000000
-7.994942 2.447776 3.189132 15.000000
-7.848842 2.405484 3.604670 11.000000
-7.754219 2.390477 5.132525 4.000000
-5.485289 1.635574 5.520475 3.000000
-7.798473 2.410934 4.603713 10.000000
-7.867873 2.437741 3.615852 9.000000
-6.324970 1.909351 5.752716 5.000000
-7.844000 2.429686 4.104067 12.000000
-7.998341 2.475502 3.192459 15.000000
-7.865885 2.463439 3.617303 10.000000
-6.275106 1.915227 5.710954 13.000000
-7.813766 2.442060 4.616097 6.000000
-7.756891 2.417501 5.138021 4.000000
-7.846201 2.456719 4.108044 7.000000
-7.992761 2.500414 3.192183 16.000000
-6.328953 1.953695 5.765078 7.000000
-7.844027 2.482486 4.109805 9.000000
-7.997737 2.528821 3.196244 13.000000
-7.842613 2.508549 4.112017 8.000000
-7.890284 2.524374 3.633620 9.000000
-7.991070 2.553534 3.195647 16.000000
-7.808387 2.493238 4.619670 7.000000
-6.350464 1.982240 5.789449 7.000000
-7.726625 2.486604 5.129289 5.000000
-7.908865 2.557071 3.644759 7.000000
-7.989681 2.579907 3.197154 13.000000
-7.884797 2.575752 3.636091 12.000000
-7.983774 2.604832 3.196870 5.000000
-7.846385 2.562841 4.119946 9.000000
-7.824200 2.551449 4.635999 8.000000
-7.987504 2.633063 3.200547 12.000000
-7.407549 2.412215 6.109778 7.000000
-6.378075 2.056667 5.828739 5.000000
-7.832337 2.580854 4.644430 7.000000
-7.735177 2.542183 5.142972 4.000000
-7.848108 2.590093 4.123931 7.000000
-7.894475 2.605732 3.643207 9.000000
-7.714246 2.553690 5.729893 5.000000
-7.884121 2.629034 3.641031 12.000000
-7.978753 2.657149 3.199214 11.000000
-7.851426 2.617963 4.128815 7.000000
-5.467040 1.761123 5.531951 3.000000
-7.814840 2.601678 4.637547 10.000000
-7.880650 2.654618 3.642051 8.000000
-7.974373 2.682664 3.199634 13.000000
-7.847075 2.643210 4.129617 9.000000
-7.801435 2.623772 4.633101 7.000000
-7.804404 2.651497 4.638525 5.000000
-7.888334 2.684099 3.648314 5.000000
-7.693926 2.599730 5.723883 6.000000
-7.965502 2.706647 3.198260 13.000000
-7.379703 2.479235 6.101426 4.000000
-7.747702 2.626049 5.163709 5.000000
-7.748754 2.653103 5.168649 6.000000
-7.692491 2.625808 5.727560 6.000000
-7.847390 2.696981 4.136168 5.000000
-7.363609 2.499210 6.093061 7.000000
-7.972409 2.736187 3.203339 14.000000
-7.817928 2.683037 4.650382 5.000000
-7.875173 2.706432 3.644904 10.000000
-5.563540 1.870194 5.650064 7.000000
-7.965116 2.760834 3.202703 10.000000
-7.800166 2.703689 4.643486 6.000000
-7.874879 2.733300 3.647552 6.000000
-7.838552 2.720809 4.134740 7.000000
-7.746626 2.705870 5.175817 5.000000
-5.581828 1.895928 5.673800 8.000000
-7.872798 2.759527 3.649362 7.000000
-7.968326 2.789176 3.206321 11.000000
-7.811203 2.761424 4.657739 4.000000
-7.349051 2.570722 6.096453 12.000000
-7.883556 2.790400 3.657201 12.000000
-7.965299 2.815326 3.207419 18.000000
-7.837539 2.774320 4.140781 7.000000
-7.971818 2.845049 3.212471 6.000000
-7.737835 2.756366 5.178647 5.000000
-7.877836 2.815471 3.657404 9.000000
-7.835197 2.800540 4.142921 6.000000
-7.815318 2.789978 4.664140 5.000000
-7.339912 2.618781 6.099555 15.000000
-7.630492 2.736760 5.705295 3.000000
-7.887489 2.846235 3.664868 6.000000
-7.833599 2.827100 4.145514 6.000000
-7.966823 2.870672 3.212888 7.000000
-7.339665 2.644404 6.104808 6.000000
-7.968770 2.898855 3.216134 12.000000
-7.845338 2.858618 4.155259 6.000000
-7.889325 2.874186 3.668679 8.000000
-7.884235 2.899557 3.669233 6.000000
-7.851130 2.887991 4.161829 7.000000
-7.967145 2.925718 3.217920 9.000000
-7.344517 2.671915 6.114368 5.000000
-7.781985 2.886187 4.660078 8.000000
-7.702680 2.851118 5.173021 5.000000
-7.968024 2.953648 3.220806 16.000000
-7.878175 2.924660 3.669415 6.000000
-7.966176 2.980639 3.222631 12.000000
-7.876300 2.951410 3.671620 12.000000
-7.690567 2.900621 5.174226 4.000000
-7.838576 2.965422 4.165924 6.000000
-7.876925 2.979117 3.675001 7.000000
-7.340766 2.748238 6.128241 9.000000
-7.806486 2.980370 4.152316 9.000000
-7.685224 2.925597 5.175324 5.000000
-7.722164 2.944815 4.636305 4.000000
-7.334999 2.771959 6.129105 6.000000
-7.352533 2.804829 6.149814 13.000000
-7.583513 2.933299 5.711757 5.000000
-7.346518 2.828700 6.150721 9.000000
-5.170134 1.952511 5.301986 15.000000
-7.576443 2.957478 5.711896 6.000000
-7.343387 2.853666 6.154072 9.000000
-5.161149 1.967439 5.297819 21.000000
-5.144146 1.979133 5.285270 21.000000
-7.561758 2.978557 5.706227 4.000000
-5.141091 1.996339 5.287366 15.000000
-5.124638 2.008233 5.275550 23.000000
-7.391714 2.952290 6.213608 9.000000
-5.120804 2.025149 5.276959 12.000000
-5.118273 2.042570 5.279740 10.000000
-5.113031 2.058900 5.279735 9.000000
-5.107033 2.074993 5.279058 17.000000
-5.105623 2.093010 5.283250 15.000000
-5.101558 2.109857 5.284623 22.000000
-5.098752 2.127273 5.287391 32.000000
-5.106386 2.149307 5.301322 29.000000
-5.113275 2.171127 5.314553 25.000000
-5.117511 2.191788 5.324960 24.000000
-5.130860 2.216578 5.345104 22.000000
-5.126364 2.233604 5.346483 35.000000
-5.130313 2.254480 5.356911 26.000000
-5.139465 2.277728 5.372869 28.000000
-5.153767 2.303437 5.394376 20.000000
-5.135316 2.314215 5.381129 27.000000
-5.144187 2.337678 5.397094 22.000000
-5.163406 2.366081 5.424158 15.000000
-5.179280 2.393064 5.447723 11.000000
-5.158682 2.402842 5.432380 19.000000
-5.162674 2.424391 5.443453 15.000000
-5.163372 2.444397 5.451036 14.000000
-5.160794 2.462820 5.455126 17.000000
-5.166512 2.485421 5.468259 10.000000
-5.161821 2.502973 5.470283 17.000000
-5.155811 2.519848 5.470902 16.000000
-5.149122 2.536366 5.470816 16.000000
-5.132102 2.547659 5.459630 30.000000
-5.141939 2.572697 5.477609 23.000000
-5.131867 2.587551 5.474057 26.000000
-5.137750 2.610651 5.487835 21.000000
-5.139697 2.631828 5.497456 31.000000
-5.142169 2.653415 5.507782 15.000000
-5.138222 2.671636 5.511159 18.000000
-5.056507 2.613648 6.015466 3.000000
-5.132356 2.688787 5.512428 19.000000
-5.042519 2.646235 6.015344 4.000000
-5.139087 2.712809 5.527574 28.000000
-5.133027 2.730044 5.528869 23.000000
-5.141453 2.755236 5.546099 29.000000
-5.137843 2.773827 5.550128 28.000000
-5.127872 2.788912 5.547225 26.000000
-5.129745 2.810729 5.557515 26.000000
-5.129031 2.831159 5.565027 22.000000
-5.124536 2.849416 5.568351 26.000000
-5.129372 2.873050 5.582057 23.000000
-5.130927 2.895004 5.592327 33.000000
-5.129904 2.915544 5.599823 29.000000
-5.118279 2.929847 5.595520 14.000000
-5.116572 2.949963 5.602284 25.000000
-5.112256 2.968675 5.606303 15.000000
-5.112812 2.990374 5.615862 22.000000
-5.320321 -1.990213 3.817038 23.000000
-5.325585 -1.973886 3.816321 25.000000
-5.344070 -1.962362 3.825088 20.000000
-5.359409 -1.949621 3.831622 20.000000
-5.470875 -1.971583 3.906505 7.000000
-5.500576 -1.870354 3.901685 8.000000
-5.534626 -1.863274 3.921558 30.000000
-5.546599 -1.848691 3.925839 58.000000
-5.553796 -1.832509 3.926775 86.000000
-5.554630 -1.814181 3.923290 72.000000
-6.032954 -1.963288 3.804695 11.000000
-5.558570 -1.796861 3.922042 66.000000
-6.183567 -1.991754 3.895220 33.000000
-5.564034 -1.780100 3.921876 68.000000
-5.563898 -1.761587 3.917809 44.000000
-6.220698 -1.983058 3.914493 51.000000
-5.571637 -1.745540 3.919318 30.000000
-6.227540 -1.964542 3.914828 50.000000
-6.233512 -1.945711 3.914668 73.000000
-5.569803 -1.726474 3.914176 26.000000
-5.578236 -1.710643 3.916239 13.000000
-6.238603 -1.926648 3.913976 72.000000
-6.228027 -1.902836 3.903530 44.000000
-5.577868 -1.692152 3.912173 6.000000
-6.229698 -1.882801 3.900787 29.000000
-6.279028 -1.877016 3.927779 14.000000
-5.709105 -1.687639 3.569540 35.000000
-5.702685 -1.667073 3.562186 38.000000
-5.731670 -1.656801 3.576872 26.000000
-5.714409 -1.633095 3.562894 14.000000
-5.699536 -1.610213 3.550453 3.000000
-7.150604 -1.987845 3.950234 23.000000
-7.145565 -1.963189 3.943960 32.000000
-7.164319 -1.945081 3.950784 20.000000
-7.145468 -1.916844 3.936992 7.000000
-7.130783 -1.889884 3.925535 7.000000
-5.514050 -1.318359 4.235423 7.000000
-5.482943 -1.293448 4.208392 42.000000
-5.477520 -1.274745 4.201060 111.000000
-5.486110 -1.259274 4.204496 172.000000
-8.373854 -1.977745 3.522034 5.000000
-6.054696 -1.386521 4.162672 4.000000
-5.486831 -1.241984 4.201966 218.000000
-6.089759 -1.375239 4.183580 43.000000
-5.488281 -1.224916 4.200014 229.000000
-5.488111 -1.207534 4.196854 205.000000
-8.470181 -1.957771 3.064777 5.000000
-6.132930 -1.365600 4.210021 143.000000
-6.830668 -1.535170 4.189119 7.000000
-6.135474 -1.346720 4.208744 252.000000
-6.832829 -1.513981 4.187398 10.000000
-5.491021 -1.190789 4.196109 216.000000
-6.145278 -1.329410 4.212469 343.000000
-5.478186 -1.170666 4.183436 153.000000
-6.837443 -1.493330 4.187219 8.000000
-6.836953 -1.471627 4.183946 11.000000
-5.488836 -1.155637 4.188645 109.000000
-6.148523 -1.310705 4.211732 425.000000
-6.146828 -1.291009 4.207646 445.000000
-5.501019 -1.140921 4.195029 77.000000
-6.830510 -1.448737 4.177069 14.000000
-5.519450 -1.127372 4.206213 70.000000
-6.828197 -1.426711 4.172785 14.000000
-6.136107 -1.269417 4.197488 341.000000
-6.135909 -1.250037 4.194556 272.000000
-6.821606 -1.403817 4.165958 14.000000
-5.526835 -1.111480 4.209054 53.000000
-6.146255 -1.232847 4.198813 127.000000
-5.553070 -1.099343 4.226193 33.000000
-6.827569 -1.383590 4.166779 19.000000
-5.029490 -0.966794 4.252231 26.000000
-5.610792 -1.093242 4.267176 16.000000
-6.127169 -1.209833 4.183081 55.000000
-6.847797 -1.366243 4.176274 15.000000
-7.834571 -1.577840 4.245703 8.000000
-5.654341 -1.084038 4.297438 5.000000
-6.862081 -1.347577 4.182213 10.000000
-5.650638 -1.097896 3.856728 25.000000
-7.861919 -1.558682 4.257625 8.000000
-5.121817 -0.968554 4.327274 81.000000
-5.118731 -0.951937 4.322050 107.000000
-7.868400 -1.535249 4.258358 8.000000
-5.630291 -1.076273 3.840501 38.000000
-5.671194 -1.051781 4.304888 6.000000
-7.845291 -1.506176 4.243175 29.000000
-5.630306 -1.058676 3.838120 64.000000
-6.998552 -1.330543 4.259575 4.000000
-5.120143 -0.936221 4.320629 147.000000
-5.123786 -0.920945 4.321106 167.000000
-7.873331 -1.486991 4.255540 23.000000
-5.635177 -1.042030 3.839052 62.000000
-6.981496 -1.305520 4.246567 17.000000
-5.125863 -0.905371 4.320316 179.000000
-5.688659 -1.019596 4.312889 5.000000
-5.643271 -1.025944 3.842211 36.000000
-7.098732 -1.305332 4.314878 55.000000
-7.839612 -1.456152 4.234741 52.000000
-5.644767 -1.008588 3.840960 40.000000
-5.126369 -0.889476 4.318277 154.000000
-7.117092 -1.286470 4.323390 157.000000
-7.848395 -1.433244 4.236877 51.000000
-5.703643 -1.004488 4.321692 11.000000
-6.385451 -1.121258 4.339923 133.000000
-5.129868 -0.874130 4.318776 156.000000
-7.855371 -1.410018 4.238060 43.000000
-7.118481 -1.264532 4.321660 167.000000
-5.704353 -0.986857 4.319747 35.000000
-7.119804 -1.242661 4.319898 166.000000
-6.390527 -1.102321 4.340829 388.000000
-5.762780 -0.979115 4.361312 118.000000
-7.938899 -1.400364 4.280319 14.000000
-5.118880 -0.856396 4.307148 97.000000
-5.761040 -0.960968 4.357555 127.000000
-6.402109 -1.084468 4.346176 584.000000
-7.121059 -1.220783 4.318141 134.000000
-7.956234 -1.378721 4.287076 5.000000
-5.134452 -0.843110 4.317820 73.000000
-6.411996 -1.066211 4.350447 750.000000
-8.249317 -1.417493 3.919335 6.000000
-7.977868 -1.357644 4.296212 4.000000
-5.764783 -0.943685 4.358005 158.000000
-7.123940 -1.199116 4.317446 124.000000
-5.146181 -0.829066 4.325334 53.000000
-5.763719 -0.925629 4.354874 167.000000
-7.963691 -1.330475 4.286192 7.000000
-6.414441 -1.046703 4.349725 752.000000
-5.154066 -0.814361 4.329659 40.000000
-8.251837 -1.392265 3.918272 9.000000
-7.129300 -1.177872 4.318282 92.000000
-5.192387 -0.804411 4.359432 24.000000
-8.245332 -1.365651 3.912940 9.000000
-8.314157 -1.389244 3.445117 6.000000
-7.132901 -1.156417 4.318051 118.000000
-7.955531 -1.304503 4.279396 13.000000
-5.767362 -0.908411 4.355286 176.000000
-6.417652 -1.027400 4.349519 740.000000
-7.142379 -1.135898 4.321399 105.000000
-6.418338 -1.007701 4.347651 648.000000
-5.774126 -0.891671 4.358084 141.000000
-7.953397 -1.279577 4.275869 11.000000
-8.231584 -1.337925 3.904233 10.000000
-8.332989 -1.366624 3.450865 21.000000
-5.215454 -0.791919 4.376463 19.000000
-8.237439 -1.313342 3.904858 4.000000
-5.786393 -0.875671 4.365088 108.000000
-7.960792 -1.256100 4.277525 15.000000
-8.321576 -1.338945 3.444250 5.000000
-6.402509 -0.985394 4.334731 509.000000
-5.261362 -0.782642 4.412631 8.000000
-7.139907 -1.113392 4.317633 56.000000
-7.973360 -1.233380 4.281996 9.000000
-7.162002 -1.094661 4.328700 42.000000
-6.433508 -0.970259 4.353421 318.000000
-8.233370 -1.287170 3.900854 8.000000
-5.783525 -0.857347 4.360772 81.000000
-6.448839 -0.952726 4.361531 245.000000
-8.316789 -1.286737 3.438509 9.000000
-7.970129 -1.208321 4.278004 18.000000
-8.224735 -1.260466 3.894681 5.000000
-5.801265 -0.842139 4.371916 40.000000
-8.435747 -1.315961 3.004108 3.000000
-7.235904 -1.083688 4.370890 10.000000
-8.225876 -1.235301 3.893154 8.000000
-6.451766 -0.933314 4.361329 209.000000
-7.251129 -1.063654 4.377816 7.000000
-8.311522 -1.260308 3.434484 6.000000
-5.798298 -0.823885 4.367561 47.000000
-7.976440 -1.184718 4.279151 8.000000
-6.444742 -0.912435 4.354501 133.000000
-7.984431 -1.161275 4.281266 8.000000
-8.234115 -1.211128 3.895036 12.000000
-8.304339 -1.233580 3.429744 4.000000
-7.288416 -1.046658 4.398058 34.000000
-5.823898 -0.809593 4.384692 22.000000
-7.364822 -1.034930 4.441818 93.000000
-8.216260 -1.183136 3.884700 5.000000
-6.450015 -0.893300 4.356000 73.000000
-5.805706 -0.789174 4.369047 11.000000
-7.980970 -1.136144 4.277326 7.000000
-8.291571 -1.206078 3.422764 10.000000
-5.812121 -0.772212 4.371854 6.000000
-6.583080 -0.891543 4.443378 42.000000
-7.994073 -1.113439 4.282220 10.000000
-7.404611 -1.017779 4.463568 152.000000
-8.222550 -1.158757 3.885717 24.000000
-8.297057 -1.181354 3.423264 10.000000
-8.226973 -1.134133 3.885875 31.000000
-7.999227 -1.089618 4.282897 20.000000
-8.304303 -1.156893 3.424501 13.000000
-7.406029 -0.995265 4.462310 145.000000
-6.620481 -0.876327 4.466446 12.000000
-8.304135 -1.131342 3.422760 7.000000
-8.246596 -1.111499 3.893231 35.000000
-6.564568 -0.848767 4.426911 5.000000
-7.992912 -1.064204 4.277534 9.000000
-7.409081 -0.972926 4.462099 186.000000
-8.237391 -1.084924 3.887111 19.000000
-8.302969 -1.105640 3.420664 8.000000
-6.654714 -0.840002 4.485484 23.000000
-7.997038 -1.040168 4.277792 13.000000
-7.410357 -0.950321 4.460884 157.000000
-7.420096 -0.928825 4.464760 233.000000
-8.230799 -1.058802 3.882236 9.000000
-8.308157 -1.080834 3.421177 11.000000
-7.984425 -1.014038 4.269162 11.000000
-6.714306 -0.826964 4.523531 86.000000
-8.239421 -1.034726 3.884495 6.000000
-8.310511 -1.055728 3.420527 12.000000
-7.971729 -0.988064 4.260498 6.000000
-7.396499 -0.903276 4.448680 351.000000
-6.720166 -0.807171 4.525528 142.000000
-5.971053 -0.701937 4.481256 6.000000
-8.310029 -1.030209 3.418784 12.000000
-5.997161 -0.686679 4.498964 22.000000
-7.400125 -0.881073 4.448978 412.000000
-6.722654 -0.786906 4.525336 142.000000
-8.238070 -1.009326 3.882148 10.000000
-7.968604 -0.963280 4.257001 7.000000
-7.403683 -0.858824 4.449293 285.000000
-6.725079 -0.766605 4.525158 170.000000
-8.236639 -0.983908 3.879820 8.000000
-7.993506 -0.941805 4.268456 7.000000
-8.310390 -1.004777 3.417436 9.000000
-6.006468 -0.669371 4.504169 53.000000
-5.773247 -1.977479 3.483249 4.000000
-8.325399 -0.981120 3.422083 6.000000
-6.725790 -0.746136 4.523861 117.000000
-7.418282 -0.837844 4.456234 135.000000
-6.008543 -0.651255 4.504002 45.000000
-8.310879 -0.954060 3.414676 12.000000
-6.019355 -0.634109 4.510365 39.000000
-6.730582 -0.726172 4.525308 68.000000
-8.025568 -0.896586 4.281968 9.000000
-7.551611 -0.829920 4.534139 42.000000
-6.000553 -0.613834 4.494701 23.000000
-7.702912 -0.823072 4.622785 19.000000
-6.736967 -0.706317 4.527884 38.000000
-8.078434 -0.877844 4.308329 25.000000
-8.219263 -0.906533 3.866856 16.000000
-8.302717 -0.927765 3.409927 16.000000
-6.738320 -0.685891 4.527151 33.000000
-8.101351 -0.855590 4.318844 26.000000
-8.217516 -0.881230 3.864528 8.000000
-8.300001 -0.902092 3.407452 11.000000
-7.672093 -0.796346 4.602663 35.000000
-5.968092 -0.592298 4.468923 6.000000
-8.118930 -0.832686 4.326548 36.000000
-7.662569 -0.771992 4.595298 82.000000
-8.205769 -0.854932 3.857554 6.000000
-8.301813 -0.876953 3.406843 11.000000
-6.739612 -0.665482 4.526411 25.000000
-8.120605 -0.808140 4.325836 20.000000
-5.985317 -0.557584 4.478710 4.000000
-8.297095 -0.851185 3.403588 11.000000
-8.211985 -0.830577 3.858992 7.000000
-7.664096 -0.748826 4.594557 90.000000
-6.756593 -0.646612 4.536180 15.000000
-8.214518 -0.805845 3.858741 13.000000
-7.668977 -0.725990 4.595855 70.000000
-8.114281 -0.782834 4.320923 10.000000
-8.291376 -0.825368 3.399955 20.000000
-7.699469 -0.705424 4.612503 56.000000
-8.300336 -0.800951 3.402364 53.000000
-8.218779 -0.781209 3.859366 7.000000
-8.117561 -0.758411 4.321175 7.000000
-7.681948 -0.680445 4.600547 34.000000
-8.213937 -0.755744 3.855768 10.000000
-8.300918 -0.775732 3.401383 28.000000
-8.301424 -0.750555 3.400383 30.000000
-7.684053 -0.657304 4.600318 25.000000
-7.647528 -0.630982 4.577109 13.000000
-5.370688 -1.700017 4.025041 4.000000
-8.281541 -0.723619 3.391118 17.000000
-8.286506 -0.698843 3.392027 15.000000
-8.284931 -0.673534 3.390299 10.000000
-8.217288 -0.656196 3.852301 9.000000
-8.291595 -0.648957 3.391917 13.000000
-8.217487 -0.631324 3.851202 5.000000
-5.433209 -1.647903 4.055705 5.000000
-5.483517 -1.645045 4.089164 32.000000
-8.276933 -0.572494 3.382968 9.000000
-8.204049 -0.555655 3.841670 15.000000
-5.491652 -1.629410 4.091338 53.000000
-5.005054 -0.271254 4.609515 37.000000
-5.592446 -0.334290 4.173159 10.000000
-8.187653 -0.529819 3.832978 13.000000
-5.624464 -0.305148 4.664363 5.000000
-5.484874 -1.609468 4.082468 116.000000
-5.007419 -0.256293 4.610705 34.000000
-6.138598 -1.776264 4.087255 6.000000
-5.579276 -0.299820 4.161501 19.000000
-5.490556 -1.593174 4.082882 124.000000
-7.003178 -0.394184 4.683679 4.000000
-6.101808 -1.745732 4.059155 26.000000
-5.012679 -0.241433 4.614612 41.000000
-5.638708 -0.271836 4.674229 12.000000
-6.143657 -1.737620 4.083148 81.000000
-5.495407 -1.576598 4.082736 167.000000
-5.018624 -0.226542 4.619208 54.000000
-7.049325 -0.375448 4.713386 8.000000
-5.578619 -0.282901 4.160165 13.000000
-5.020102 -0.211427 4.619755 59.000000
-5.577108 -0.265947 4.158234 10.000000
-5.648064 -0.255202 4.681080 27.000000
-6.855149 -1.894034 4.051223 2.000000
-7.041361 -0.353708 4.707113 9.000000
-5.500208 -1.560005 4.082592 157.000000
-6.145690 -1.718162 4.080838 109.000000
-6.153352 -1.700338 4.082255 137.000000
-5.029655 -0.196676 4.627706 54.000000
-7.029180 -0.331892 4.698040 7.000000
-6.842427 -1.868369 4.040162 3.000000
-5.503386 -1.543013 4.081262 127.000000
-5.651215 -0.238311 4.682817 37.000000
-5.585186 -0.249493 4.163423 9.000000
-5.506512 -1.526011 4.079935 96.000000
-6.157707 -1.681589 4.081529 145.000000
-5.652001 -0.221305 4.682648 37.000000
-5.031791 -0.181596 4.628907 47.000000
-7.030242 -0.310735 4.697827 12.000000
-5.585989 -0.232685 4.163257 14.000000
-5.508800 -1.508747 4.078050 88.000000
-5.651955 -0.204226 4.681863 31.000000
-6.861277 -1.829108 4.044199 5.000000
-6.162006 -1.662784 4.080826 138.000000
-5.066312 -0.167548 4.659833 26.000000
-5.595567 -0.216175 4.169658 21.000000
-7.049539 -0.290280 4.709816 8.000000
-5.597867 -0.199339 4.170708 35.000000
-6.852527 -1.804625 4.035642 7.000000
-7.048799 -0.268932 4.708529 8.000000
-6.165434 -1.643739 4.079592 102.000000
-5.520480 -1.494021 4.083119 60.000000
-5.661881 -0.187472 4.689352 28.000000
-5.064662 -0.152188 4.657681 21.000000
-7.057163 -0.247978 4.713299 4.000000
-5.050707 -1.373742 4.160861 8.000000
-5.074777 -0.137208 4.666308 12.000000
-6.190834 -1.630532 4.092821 44.000000
-8.007302 -0.297261 4.774317 4.000000
-5.512426 -1.474038 4.073687 74.000000
-6.918645 -1.799725 4.070915 15.000000
-5.596912 -0.182437 4.169352 22.000000
-5.678712 -0.170923 4.702541 23.000000
-7.869318 -1.999178 4.091272 6.000000
-6.884491 -1.768750 4.047534 6.000000
-5.615988 -0.166153 4.182873 42.000000
-5.539778 -1.463473 4.090307 32.000000
-5.677754 -0.153802 4.701097 34.000000
-5.072311 -0.121876 4.663455 12.000000
-6.183539 -1.608724 4.084576 55.000000
-5.608500 -0.148992 4.176775 40.000000
-5.489004 -1.432383 4.049628 19.000000
-5.066837 -0.106448 4.657925 23.000000
-7.239378 -0.210741 4.832979 19.000000
-5.712222 -0.137496 4.728930 26.000000
-7.893597 -1.979979 4.100467 10.000000
-5.733126 -1.473391 3.785526 29.000000
-5.627166 -1.428134 3.712939 45.000000
-5.455464 -1.406070 4.021693 5.000000
-5.067952 -0.091169 4.658473 12.000000
-5.626664 -0.132482 4.189728 42.000000
-5.701118 -0.120009 4.719247 32.000000
-7.270041 -0.189673 4.852713 37.000000
-7.896134 -1.955281 4.098467 10.000000
-5.606944 -1.405052 3.696674 78.000000
-6.952803 -1.719313 4.077508 11.000000
-5.105171 -1.322572 4.191304 59.000000
-5.632739 -0.115662 4.193730 58.000000
-7.911618 -1.933829 4.103152 16.000000
-5.063131 -0.075839 4.653601 12.000000
-5.735500 -0.103470 4.747059 19.000000
-7.293993 -0.168330 4.867991 44.000000
-5.631535 -0.098698 4.192367 66.000000
-7.876319 -0.173623 4.693092 4.000000
-5.737427 -0.086251 4.748155 14.000000
-5.039085 -0.060321 4.631172 6.000000
-7.289573 -0.146296 4.864445 48.000000
-5.122130 -1.310513 4.201688 85.000000
-8.101095 -0.193062 4.288777 6.000000
-7.148262 -1.744715 4.188139 39.000000
-5.611212 -1.388186 3.696496 61.000000
-7.928780 -1.912745 4.108719 29.000000
-5.714593 -0.068661 4.728930 12.000000
-5.053344 -0.045252 4.643867 7.000000
-7.946763 -1.891707 4.114773 12.000000
-5.621429 -0.081556 4.184484 35.000000
-8.233211 -1.940003 3.740007 6.000000
-7.872590 -0.149777 4.690333 10.000000
-5.622811 -1.373048 3.701174 53.000000
-7.294233 -0.124376 4.867018 57.000000
-5.116243 -1.292567 4.193488 103.000000
-7.115488 -1.713992 4.165775 85.000000
-7.121545 -1.692700 4.166084 99.000000
-5.619636 -1.376181 4.128749 6.000000
-7.953376 -1.867906 4.115014 6.000000
-5.051322 -0.029985 4.641717 8.000000
-7.306320 -0.102519 4.874579 49.000000
-5.704820 -0.051318 4.720522 14.000000
-5.111055 -1.274847 4.185915 134.000000
-5.640198 -0.064801 4.198031 19.000000
-5.617140 -1.353700 3.694593 47.000000
-7.958171 -1.843732 4.114333 8.000000
-5.672187 -1.370895 4.163899 15.000000
-8.243991 -1.890092 3.739148 10.000000
-7.329180 -0.080760 4.889309 36.000000
-6.311045 -1.500269 4.145050 31.000000
-5.038194 -0.014730 4.629428 6.000000
-5.708898 -0.034159 4.723542 13.000000
-7.854595 -0.102037 4.678691 7.000000
-5.115711 -1.259634 4.186389 162.000000
-5.665354 -0.048028 4.216321 9.000000
-7.124147 -1.670642 4.164398 106.000000
-7.838617 -0.078242 4.668764 5.000000
-8.114636 -0.095501 4.293932 6.000000
-7.959404 -1.818787 4.111843 13.000000
-7.141094 -1.651942 4.171070 78.000000
-5.754906 -1.372498 4.221030 72.000000
-6.429838 -1.507990 4.219416 148.000000
-7.306167 -0.058523 4.873597 41.000000
-5.697492 -0.016953 4.713835 9.000000
-5.684841 -0.031098 4.230433 7.000000
-5.125659 -1.245720 4.191192 150.000000
-6.413870 -1.483867 4.205821 232.000000
-7.973646 -1.796754 4.116089 11.000000
-7.336392 -0.036664 4.893307 36.000000
-8.096380 -0.070882 4.283924 4.000000
-8.348714 -1.845894 3.278305 4.000000
-7.147812 -1.630802 4.171849 60.000000
-5.060508 0.015658 4.649387 12.000000
-8.245524 -1.838219 3.734225 6.000000
-5.771000 -1.357946 4.229548 105.000000
-5.130227 -1.230455 4.191667 157.000000
-7.844925 -0.054665 4.672112 10.000000
-5.679852 0.000214 4.699055 4.000000
-5.008860 0.030630 4.602023 4.000000
-7.157017 -1.610166 4.174127 47.000000
-8.154035 -0.059854 3.804605 10.000000
-5.770375 -1.339416 4.225928 140.000000
-6.648719 0.003512 4.943559 7.000000
-7.341552 -0.014526 4.896441 30.000000
-8.333287 -1.816106 3.269910 5.000000
-5.139331 -1.216224 4.195878 130.000000
-8.062112 -0.046232 4.265557 5.000000
-7.850294 -0.031000 4.674974 11.000000
-7.979974 -1.772863 4.116330 7.000000
-6.420858 -1.465058 4.207265 246.000000
-5.699981 0.034594 4.715291 8.000000
-7.162762 -1.588770 4.174418 92.000000
-7.347485 0.007610 4.900114 33.000000
-7.978366 -1.747268 4.112523 13.000000
-8.051668 -0.021895 4.259749 5.000000
-5.778437 -1.322923 4.228662 200.000000
-5.152217 -1.202861 4.203178 90.000000
-8.264638 -1.790166 3.737396 12.000000
-6.610995 0.023426 4.915414 29.000000
-6.429437 -1.446620 4.209768 278.000000
-7.859900 -0.007344 4.680367 13.000000
-7.985415 -1.723640 4.113163 13.000000
-5.152071 -1.186490 4.199916 68.000000
-7.170142 -1.567778 4.175668 78.000000
-6.594923 0.043200 4.903314 37.000000
-7.872886 0.016317 4.687772 7.000000
-5.699176 0.051722 4.714483 8.000000
-6.437139 -1.428008 4.211709 284.000000
-5.783269 -1.305722 4.229059 205.000000
-7.343366 0.029687 4.897122 24.000000
-8.288860 -1.769302 3.745574 7.000000
-8.181591 -0.010780 3.816747 4.000000
-8.034080 0.002319 4.250188 6.000000
-6.594055 0.063046 4.902530 37.000000
-7.903001 0.040172 4.705387 11.000000
-7.198734 -1.551300 4.189243 35.000000
-7.973933 0.026323 4.218296 8.000000
-5.154932 -1.170802 4.199145 52.000000
-5.667436 0.068502 4.688260 8.000000
-8.323883 -1.735405 3.259205 7.000000
-6.443963 -1.409160 4.213127 252.000000
-7.990645 -1.699585 4.112924 12.000000
-7.376663 0.052026 4.919034 13.000000
-8.152617 0.013815 3.803052 11.000000
-5.787254 -1.288306 4.228888 189.000000
-8.146240 0.038420 3.799912 5.000000
-5.795169 -1.271689 4.231640 152.000000
-8.322817 -1.724079 3.755570 7.000000
-7.990555 -1.674336 4.110040 11.000000
-7.938480 0.050196 4.199480 7.000000
-5.159277 -1.155397 4.199640 58.000000
-7.926147 0.064232 4.718959 17.000000
-8.178243 0.026901 3.329003 7.000000
-6.587485 0.082885 4.897613 32.000000
-7.211968 -1.531347 4.193989 8.000000
-5.661103 0.085528 4.683040 7.000000
-8.315394 -1.707431 3.253666 4.000000
-6.445780 -1.389154 4.211360 199.000000
-7.397381 0.074516 4.932683 7.000000
-7.199585 -1.506023 4.183949 6.000000
-8.150680 0.063040 3.801804 16.000000
-8.326246 -1.698586 3.754544 8.000000
-7.453025 0.097557 4.969547 8.000000
-5.217980 -1.151958 4.244149 28.000000
-8.178167 0.051585 3.328791 10.000000
-6.450013 -1.369699 4.211190 173.000000
-7.949225 0.088405 4.732518 27.000000
-7.995639 -1.650215 4.109828 12.000000
-7.925085 0.074031 4.192292 11.000000
-5.796658 -1.253683 4.229752 85.000000
-6.600954 0.102970 4.907558 20.000000
-5.622304 0.101916 4.651117 7.000000
-8.313224 -1.680846 3.250601 12.000000
-6.444271 -1.348232 4.204551 138.000000
-8.143262 0.087476 3.798189 34.000000
-8.008533 -1.627761 4.113600 11.000000
-7.451970 0.119951 4.968765 12.000000
-7.246793 -1.493125 4.208339 11.000000
-5.574211 0.117815 4.611541 7.000000
-6.595894 0.122724 4.903788 9.000000
-7.910746 0.097690 4.184600 15.000000
-5.800486 -1.236251 4.229569 66.000000
-7.953322 0.112366 4.734822 19.000000
-8.187300 0.076268 3.332284 6.000000
-8.323305 -1.671918 3.750660 13.000000
-8.324712 -1.657107 3.252822 10.000000
-8.326569 -1.646518 3.749592 19.000000
-7.901645 0.121348 4.179705 20.000000
-8.005581 -1.602090 4.109318 14.000000
-5.812244 -1.220474 4.235175 58.000000
-8.355398 -1.637075 3.262509 11.000000
-7.469172 0.142690 4.980152 44.000000
-8.173177 0.100729 3.326417 13.000000
-7.976271 0.136679 4.748341 19.000000
-7.324702 -1.486165 4.250453 42.000000
-8.129419 0.111786 3.791634 29.000000
-6.443418 -1.327828 4.201132 118.000000
-6.463185 -1.311548 4.211155 67.000000
-8.107325 0.135972 3.781342 11.000000
-8.353003 -1.610422 3.259451 10.000000
-5.374446 0.146037 4.447269 7.000000
-7.950954 0.160262 4.733363 7.000000
-7.488784 0.165677 4.993238 26.000000
-8.328860 -1.620842 3.748173 23.000000
-8.169168 0.125355 3.324716 8.000000
-8.000794 -1.576013 4.104190 16.000000
-7.896882 0.145126 4.177181 16.000000
-5.827154 -1.205227 4.243128 35.000000
-7.416296 -1.481384 4.300483 91.000000
-7.419951 -1.458824 4.299798 80.000000
-7.506662 0.188735 5.005215 27.000000
-5.838828 -1.189258 4.248765 32.000000
-8.002948 -1.551345 4.102639 11.000000
-7.909746 0.169245 4.183964 13.000000
-8.323878 -1.593802 3.743535 14.000000
-8.104210 0.160392 3.779877 14.000000
-5.348586 0.161491 4.426164 8.000000
-6.637724 -1.325989 4.321436 21.000000
-7.980619 0.184952 4.750999 10.000000
-8.369809 -1.587454 3.263852 6.000000
-8.167867 0.150001 3.324136 17.000000
-7.974101 0.208802 4.747193 4.000000
-8.166502 0.174559 3.323517 24.000000
-8.086520 0.184386 3.771647 21.000000
-8.317904 -1.566719 3.738454 7.000000
-7.919011 0.193277 4.188847 6.000000
-8.007657 -1.527260 4.102389 15.000000
-7.427810 -1.437156 4.301537 102.000000
-6.660821 -1.309750 4.333562 5.000000
-5.318836 0.176608 4.401859 6.000000
-5.920958 0.181688 4.404641 3.000000
-8.063316 0.208130 3.760895 9.000000
-6.100544 -1.204162 4.432384 4.000000
-7.433895 -1.415133 4.302289 101.000000
-8.375635 -1.536383 3.261907 7.000000
-8.167845 0.199174 3.324019 12.000000
-6.669790 -1.290672 4.336571 10.000000
-5.316822 0.192543 4.400432 6.000000
-7.358181 0.229316 4.906905 4.000000
-7.929973 0.217410 4.194658 19.000000
-8.316342 -1.540524 3.735380 7.000000
-8.013172 -1.503330 4.102585 19.000000
-7.984713 0.233108 4.753578 7.000000
-6.073356 0.222961 4.517916 9.000000
-8.164465 0.223763 3.322694 34.000000
-8.352678 -1.506119 3.251035 8.000000
-6.709390 -1.277296 4.359453 32.000000
-7.990070 0.257407 4.756948 8.000000
-7.960310 0.242290 4.210751 8.000000
-8.025656 -1.480584 4.106407 8.000000
-5.324000 0.208891 4.406659 10.000000
-7.436491 -1.392363 4.301114 92.000000
-8.015539 0.231124 3.738840 20.000000
-8.303892 -1.512295 3.727534 15.000000
-8.312080 -1.487859 3.728927 6.000000
-8.005608 0.267854 4.234751 7.000000
-7.993090 0.254634 3.728554 26.000000
-6.698349 -1.254250 4.349633 154.000000
-7.448437 -1.371321 4.305354 139.000000
-6.059874 0.240783 4.508253 7.000000
-8.162868 0.248387 3.322117 18.000000
-8.353547 -1.480239 3.249399 6.000000
-7.321852 0.272440 4.883323 4.000000
-8.053037 -1.460484 4.117833 6.000000
-7.985101 0.305450 4.754486 7.000000
-5.354420 0.242403 4.432435 10.000000
-6.089773 -1.144865 4.416277 8.000000
-8.295840 -1.459180 3.719442 13.000000
-8.050428 -1.434974 4.114016 10.000000
-8.028721 0.292829 4.247088 5.000000
-6.094546 0.260527 4.534250 5.000000
-8.164909 0.273066 3.323008 17.000000
-5.355109 -1.030614 4.328979 11.000000
-6.981378 0.280878 4.657566 6.000000
-7.964234 0.277730 3.715300 23.000000
-5.190089 0.250710 4.770137 10.000000
-7.450043 -1.348422 4.303658 156.000000
-8.337754 -1.451553 3.241339 8.000000
-6.699686 -1.233620 4.347828 248.000000
-8.044688 0.317640 4.255689 12.000000
-5.269032 0.270374 4.842837 16.000000
-8.299356 -1.434059 3.718781 12.000000
-7.946196 0.301039 3.707078 26.000000
-5.955294 -1.101140 4.316595 52.000000
-8.338448 -1.425830 3.239658 9.000000
-7.449007 -1.325096 4.300473 143.000000
-6.735854 -1.219308 4.368526 357.000000
-8.010034 0.330526 4.769532 4.000000
-5.390774 0.260278 4.462778 5.000000
-6.969769 0.301406 4.650173 5.000000
-5.352871 -1.013490 4.324477 19.000000
-8.159468 0.297463 3.320893 14.000000
-7.494208 -1.309797 4.323893 58.000000
-5.400836 0.277079 4.471535 9.000000
-6.010033 -1.092479 4.353455 100.000000
-6.145228 0.299758 4.572566 5.000000
-7.938958 0.324745 3.703929 20.000000
-5.365237 -0.999065 4.331771 23.000000
-6.989720 0.323379 4.663811 7.000000
-8.155796 0.321964 3.319556 20.000000
-7.991890 0.353919 4.759133 6.000000
-8.105794 -1.394464 4.137252 9.000000
-8.054375 0.342349 4.261062 9.000000
-8.279322 -1.404896 3.707711 7.000000
-6.733757 -1.197961 4.364591 439.000000
-8.313251 -1.395733 3.228067 6.000000
-5.290393 0.287449 4.862938 18.000000
-7.997741 0.378359 4.763009 4.000000
-7.557406 -1.297304 4.357653 17.000000
-5.361350 -0.981608 4.326056 17.000000
-8.150196 0.346386 3.317481 18.000000
-7.937087 0.348666 3.703310 29.000000
-8.060446 0.366977 4.264582 12.000000
-8.279061 -1.379149 3.705487 11.000000
-6.058350 -1.082342 4.385691 205.000000
-5.296218 0.303785 4.868880 9.000000
-8.313778 -1.370025 3.226430 9.000000
-5.718512 0.310588 4.733801 7.000000
