# .PCD v0.7 - Point Cloud Data file format
VERSION 0.7
FIELDS x y z intensity
SIZE 4 4 4 4
TYPE F F F F
COUNT 1 1 1 1
WIDTH 1248
HEIGHT 1
VIEWPOINT 0 0 0 1 0 0 0
POINTS 1248
DATA ascii
-8.366920 1.884888 0.012394 25.000000
-8.130827 1.930259 2.504333 28.000000
-8.325020 1.907422 0.837670 115.000000
-8.283053 1.913090 1.250934 78.000000
-5.989675 1.310409 -0.878089 36.000000
-8.175080 1.923312 2.076927 47.000000
-7.068376 1.563337 -0.688482 7.000000
-8.013134 1.891616 1.618854 80.000000
-8.128775 1.955817 2.504572 33.000000
-8.223727 1.893003 0.419722 20.000000
-7.046035 1.580178 -0.687477 10.000000
-8.322156 1.900704 0.011500 22.000000
-5.219091 1.146344 -1.027435 30.000000
-8.201942 1.859072 -0.395225 17.000000
-8.171186 1.948469 2.076492 55.000000
-8.276284 1.937727 1.249865 89.000000
-5.964330 1.323140 -0.875496 35.000000
-8.050094 1.955872 2.926929 29.000000
-8.324044 1.933484 0.837228 122.000000
-8.054332 1.982858 2.929692 18.000000
-6.931581 1.575471 -0.677083 11.000000
-8.199104 1.884050 -0.396293 19.000000
-8.265599 1.961392 1.248200 89.000000
-8.126649 1.981360 2.504795 27.000000
-8.191691 1.911275 0.417496 27.000000
-5.930289 1.333715 -0.871581 36.000000
-8.319119 1.958609 0.836384 110.000000
-5.205891 1.159358 -1.026047 30.000000
-7.993126 1.912233 1.615041 109.000000
-8.169106 1.974064 2.076523 56.000000
-8.289052 1.919006 0.010590 30.000000
-6.909229 1.591834 -0.676045 11.000000
-8.182579 1.905857 -0.396629 14.000000
-5.924165 1.350682 -0.871918 22.000000
-8.052981 2.008556 2.930473 20.000000
-5.188842 1.171451 -1.023850 29.000000
-8.314105 1.983784 0.835572 91.000000
-8.246183 1.982951 1.245262 69.000000
-8.165985 1.999491 2.076344 62.000000
-8.256877 1.937419 0.009718 34.000000
-8.126281 2.007438 2.505627 26.000000
-8.287785 1.960329 0.421647 53.000000
-7.993052 1.937751 1.615323 82.000000
-8.235350 2.006580 1.243644 86.000000
-8.229523 1.956856 0.008857 33.000000
-8.309978 2.009208 0.834867 101.000000
-8.139776 1.921296 -0.395600 7.000000
-8.369098 2.006450 0.425067 92.000000
-7.990036 1.962593 1.615034 91.000000
-6.917810 1.615496 -0.678166 11.000000
-8.054278 2.034993 2.932269 29.000000
-5.886237 1.360104 -0.867371 36.000000
-5.216621 1.194051 -1.030876 37.000000
-8.123965 2.033082 2.505890 22.000000
-8.163718 2.025179 2.076417 45.000000
-8.053688 2.060925 2.933356 19.000000
-7.984104 1.986657 1.614129 104.000000
-8.368769 2.032870 0.424415 75.000000
-6.847008 1.619981 -0.672184 10.000000
-5.862729 1.372744 -0.865061 33.000000
-8.163050 2.014660 1.232710 70.000000
-5.131778 1.189889 -1.014742 18.000000
-8.240006 1.985392 0.007916 20.000000
-8.119735 2.058197 2.505539 33.000000
-8.311576 2.036016 0.834702 89.000000
-8.161389 2.050816 2.076451 48.000000
-8.054849 2.087319 2.935088 21.000000
-5.857452 1.389681 -0.865575 19.000000
-8.054347 2.013004 1.216263 83.000000
-8.161810 2.077154 2.077182 36.000000
-7.983809 2.012135 1.614358 81.000000
-8.233900 2.009872 0.006969 25.000000
-8.310200 2.062087 0.834222 73.000000
-8.110807 2.082057 2.503723 15.000000
-6.755947 1.619055 -0.664120 11.000000
-5.049866 1.185907 -0.999195 11.000000
-8.350921 2.054902 0.422878 49.000000
-8.232562 2.035604 0.006041 26.000000
-7.983423 2.037677 1.614611 97.000000
-8.164007 2.104055 2.078418 33.000000
-8.104570 2.106667 2.502796 26.000000
-8.314518 2.089698 0.834343 77.000000
-8.054938 2.038931 1.216367 87.000000
-8.353339 2.082054 0.422369 51.000000
-8.054997 2.113545 2.936508 14.000000
-5.082293 1.209519 -1.007223 18.000000
-5.835804 1.402605 -0.863554 26.000000
-6.799184 1.650982 -0.669842 6.000000
-8.356627 2.109543 0.421933 67.000000
-5.797820 1.411370 -0.858990 37.000000
-8.164226 2.130543 2.079199 31.000000
-8.038202 2.060431 1.213893 79.000000
-8.090384 2.011401 -0.397911 4.000000
-6.702367 1.648022 -0.661113 12.000000
-5.005202 1.206167 -0.992606 15.000000
-8.062318 2.141814 2.940633 19.000000
-7.981990 2.063037 1.614696 94.000000
-8.319696 2.117657 0.834586 87.000000
-8.101015 2.132055 2.502762 13.000000
-8.235980 2.062634 0.005132 18.000000
-8.065022 2.168839 2.943039 22.000000
-5.005188 1.221717 -0.993950 10.000000
-8.163442 2.156737 2.079696 30.000000
-5.790514 1.427646 -0.859194 31.000000
-8.355968 2.136000 0.421263 58.000000
-6.614311 1.646658 -0.653295 19.000000
-8.243191 2.090642 0.004172 21.000000
-8.312279 2.142318 0.833537 66.000000
-7.979547 2.088092 1.614547 104.000000
-8.099251 2.157878 2.503260 22.000000
-7.938093 1.997914 -0.391182 4.000000
-8.023337 2.082292 1.211669 117.000000
-8.105731 2.185955 2.506321 11.000000
-8.287075 2.128290 0.003115 30.000000
-8.164458 2.183416 2.080645 31.000000
-8.058572 2.193343 2.942071 22.000000
-8.017982 2.106603 1.210865 134.000000
-5.782202 1.443620 -0.859267 29.000000
-8.310569 2.168449 0.833036 58.000000
-6.598586 1.663395 -0.652964 17.000000
-7.976089 2.112858 1.614178 98.000000
-8.348472 2.160652 0.420234 72.000000
-7.972541 2.137662 1.613828 98.000000
-6.576078 1.678324 -0.651915 17.000000
-8.344755 2.186349 0.419414 82.000000
-8.306845 2.194112 0.832363 62.000000
-8.092726 2.208745 2.503358 28.000000
-5.744173 1.451883 -0.854720 28.000000
-8.016362 2.131975 1.210657 105.000000
-8.057476 2.219396 2.943130 17.000000
-8.302766 2.158838 0.002121 25.000000
-8.164441 2.209904 2.081373 28.000000
-5.699451 1.458210 -0.849106 32.000000
-8.012741 2.156885 1.210188 116.000000
-6.541032 1.689869 -0.649539 17.000000
-8.088857 2.234122 2.503299 23.000000
-8.346734 2.213659 0.418904 57.000000
-8.296306 2.217996 0.831048 74.000000
-7.970795 2.163038 1.613890 84.000000
-8.160581 2.235423 2.081167 26.000000
-8.059903 2.246546 2.945552 14.000000
-8.304816 2.185929 0.001178 22.000000
-8.057726 2.272391 2.946274 26.000000
-8.296167 2.210135 0.000229 15.000000
-8.011912 2.182549 1.210124 83.000000
-8.344777 2.239909 0.418177 57.000000
-8.084922 2.259457 2.503214 21.000000
-8.157589 2.261163 2.081173 32.000000
-6.548268 1.712507 -0.651583 13.000000
-8.301062 2.246028 0.831234 34.000000
-5.681502 1.471373 -0.847667 37.000000
-7.966144 2.187593 1.613347 88.000000
-8.161066 2.288720 2.082822 26.000000
-8.282634 2.232934 -0.000744 9.000000
-8.295187 2.271118 0.830335 41.000000
-8.092894 2.288183 2.506829 11.000000
-8.005297 2.206573 1.209161 98.000000
-7.960486 2.211822 1.612579 100.000000
-8.051868 2.297141 2.945626 18.000000
-8.347562 2.267448 0.417648 46.000000
-6.566952 1.738285 -0.654861 12.000000
-5.658749 1.483125 -0.845503 36.000000
-8.004316 2.232223 1.209071 106.000000
-5.625482 1.491912 -0.841689 35.000000
-8.153252 2.313110 2.081604 29.000000
-8.052256 2.323759 2.947324 12.000000
-7.956635 2.236600 1.612204 89.000000
-6.472308 1.733182 -0.646294 19.000000
-8.340630 2.292356 0.416660 62.000000
-8.274814 2.257302 -0.001718 10.000000
-8.293063 2.297297 0.829826 45.000000
-8.082364 2.311645 2.504706 26.000000
-7.952693 2.261427 1.611855 88.000000
-8.048018 2.349112 2.947379 24.000000
-8.150007 2.338888 2.081611 43.000000
-8.287972 2.322718 0.829059 48.000000
-6.465959 1.752024 -0.646927 20.000000
-8.264025 2.280883 -0.002657 6.000000
-8.080937 2.337823 2.505482 27.000000
-5.609371 1.505277 -0.840534 32.000000
-8.345146 2.320561 0.416259 40.000000
-8.001337 2.257392 1.208720 104.000000
-8.340925 2.346339 0.415433 45.000000
-8.042799 2.374186 2.947095 23.000000
-6.385791 1.750154 -0.639819 24.000000
-8.290456 2.350335 0.829046 48.000000
-8.141095 2.363014 2.080175 32.000000
-7.999229 2.282837 1.208506 93.000000
-7.689680 2.130096 -0.387911 4.000000
-5.573228 1.512982 -0.836245 25.000000
-8.076673 2.363192 2.505391 24.000000
-8.257016 2.305512 -0.003611 10.000000
-7.948673 2.286248 1.611501 94.000000
-6.388968 1.771387 -0.641492 19.000000
-5.587528 1.534660 -0.839897 37.000000
-8.135860 2.388143 2.079648 31.000000
-8.075109 2.389308 2.506112 16.000000
-7.948363 2.312107 1.611865 100.000000
-8.235529 2.325901 -0.004574 5.000000
-8.340478 2.373146 0.414740 41.000000
-7.995162 2.307658 1.207956 100.000000
-8.037535 2.399173 2.946761 20.000000
-7.613973 2.133106 -0.385122 3.000000
-8.289042 2.376797 0.828601 47.000000
-8.125895 2.411872 2.077929 28.000000
-8.073457 2.415451 2.506835 17.000000
-8.337065 2.399145 0.413913 33.000000
-7.994808 2.333618 1.207984 92.000000
-6.341389 1.778123 -0.637820 21.000000
-8.039396 2.426380 2.949100 18.000000
-5.512366 1.530954 -0.829502 25.000000
-8.307591 2.409203 0.830149 25.000000
-8.225514 2.349545 -0.005561 11.000000
-7.948905 2.338280 1.612423 87.000000
-8.291663 2.431558 0.828318 31.000000
-8.039342 2.453122 2.950803 21.000000
-7.942768 2.362547 1.611672 80.000000
-8.127911 2.439312 2.079352 34.000000
-5.533229 1.554531 -0.834174 32.000000
-8.329725 2.424073 0.412934 48.000000
-7.990562 2.358517 1.207469 92.000000
-8.235568 2.379135 -0.006576 20.000000
-8.071697 2.441668 2.507590 33.000000
-6.272803 1.778537 -0.631892 37.000000
-8.329007 2.450999 0.412281 41.000000
-8.287109 2.457304 0.827629 37.000000
-5.511285 1.565797 -0.832113 31.000000
-6.249140 1.791734 -0.630695 25.000000
-8.128903 2.466514 2.080539 21.000000
-7.940306 2.387962 1.611691 72.000000
-8.231135 2.404547 -0.007545 16.000000
-8.030198 2.477078 2.949175 14.000000
-8.068934 2.467626 2.508062 14.000000
-7.990970 2.384865 1.207674 98.000000
-8.029111 2.503477 2.950491 27.000000
-6.212105 1.800778 -0.628119 31.000000
-5.471305 1.571576 -0.827240 26.000000
-8.284401 2.483536 0.827070 50.000000
-8.329176 2.478142 0.411615 38.000000
-8.069777 2.494651 2.509623 17.000000
-7.933102 2.411845 1.610697 81.000000
-8.115933 2.489316 2.078084 31.000000
-8.229513 2.430731 -0.008581 14.000000
-7.992261 2.411441 1.207964 71.000000
-7.938005 2.439513 1.612181 81.000000
-8.283514 2.510357 0.826691 37.000000
-6.212235 1.820762 -0.629491 27.000000
-8.028838 2.530176 2.952132 14.000000
-8.322572 2.503259 0.410621 36.000000
-8.118646 2.517024 2.079683 30.000000
-8.066882 2.520539 2.510030 24.000000
-8.200060 2.448491 -0.009531 6.000000
-5.441762 1.580236 -0.824011 30.000000
-7.988740 2.436575 1.207532 106.000000
-7.214239 2.135170 -0.369670 8.000000
-8.320642 2.529920 0.409902 23.000000
-8.209750 2.478218 -0.010566 7.000000
-6.169454 1.827834 -0.626266 37.000000
-5.402749 1.585934 -0.819245 26.000000
-7.934365 2.464652 1.611988 84.000000
-8.029337 2.557272 2.954149 12.000000
-8.284418 2.537872 0.826547 39.000000
-8.063871 2.546516 2.510481 26.000000
-7.991727 2.463867 1.208144 66.000000
-8.123084 2.545446 2.081803 23.000000
-7.151376 2.162647 -0.368649 8.000000
-8.029747 2.584397 2.956163 6.000000
-7.984242 2.487910 1.207181 89.000000
-8.282383 2.564522 0.826116 50.000000
-8.205010 2.503580 -0.011556 11.000000
-8.122804 2.572432 2.082724 26.000000
-5.386448 1.598331 -0.818076 29.000000
-8.067156 2.574572 2.512932 31.000000
-6.117174 1.831753 -0.622019 42.000000
-7.934384 2.490988 1.612556 78.000000
-8.315767 2.555700 0.409042 27.000000
-8.016670 2.607030 2.953136 9.000000
-7.981421 2.513369 1.206885 82.000000
-8.308924 2.580798 0.408043 19.000000
-8.069465 2.602298 2.515046 20.000000
-8.126155 2.600568 2.084550 10.000000
-5.285086 1.584411 -0.803412 17.000000
-6.093439 1.844154 -0.620844 45.000000
-7.937144 2.518180 1.613647 95.000000
-7.242909 2.214412 -0.374957 4.000000
-8.280281 2.591107 0.825635 36.000000
-8.104506 2.620543 2.079930 27.000000
-8.181024 2.549598 -0.013587 6.000000
-5.280141 1.599863 -0.804068 20.000000
-8.068956 2.629148 2.516291 18.000000
-7.938882 2.545097 1.614536 91.000000
-8.014269 2.633184 2.954092 13.000000
-8.284732 2.619827 0.825799 26.000000
-7.977578 2.538518 1.206435 83.000000
-6.080127 1.859692 -0.620792 37.000000
-8.300103 2.605260 0.406942 17.000000
-7.075127 2.185114 -0.366958 9.000000
-7.974575 2.564047 1.206166 82.000000
-8.288116 2.648364 0.825907 33.000000
-8.178918 2.575804 -0.014606 7.000000
-8.308305 2.635286 0.406695 17.000000
-7.939572 2.571813 1.615270 100.000000
-8.069239 2.656396 2.517859 22.000000
-8.013537 2.660024 2.955751 16.000000
-7.035085 2.195487 -0.365965 9.000000
-8.112275 2.650285 2.082974 19.000000
-6.062978 1.874020 -0.620300 25.000000
-5.193102 1.589540 -0.791606 11.000000
-8.075784 2.685826 2.521424 11.000000
-8.301203 2.660438 0.405723 16.000000
-8.155797 2.595249 -0.015540 8.000000
-8.073902 2.664648 2.074112 29.000000
-8.009145 2.685671 2.956078 12.000000
-8.429500 1.000061 1.072870 114.000000
-5.165530 1.597578 -0.788613 13.000000
-6.041058 1.886751 -0.619297 29.000000
-7.968669 2.588654 1.205468 93.000000
-8.285727 2.675087 0.825450 28.000000
-7.938310 2.597939 1.615621 95.000000
-8.274759 2.698952 0.824119 40.000000
-7.932327 2.622472 1.614989 86.000000
-8.315859 2.692710 0.405751 15.000000
-8.182385 1.015316 2.736847 31.000000
-5.167136 1.614809 -0.790306 14.000000
-8.012536 2.670955 2.059279 38.000000
-8.490932 1.010073 0.244876 11.000000
-8.457385 1.018300 0.658366 26.000000
-6.000186 1.893220 -0.616270 34.000000
-7.964580 2.613829 1.205023 81.000000
-8.400832 1.022143 1.068872 178.000000
-8.016285 2.715264 2.960693 11.000000
-8.335637 1.021876 1.475980 252.000000
-8.143096 2.617953 -0.016547 5.000000
-8.239956 1.017827 1.881354 46.000000
-8.080431 2.714653 2.524382 11.000000
-8.118944 2.636805 -0.017527 6.000000
-7.960422 2.638969 1.204553 77.000000
-8.335460 1.047303 1.475731 262.000000
-8.483807 1.034861 0.243990 17.000000
-8.453242 1.043436 0.657512 42.000000
-5.994324 1.910854 -0.617035 40.000000
-6.934910 2.231729 -0.364131 9.000000
-8.078651 2.741308 2.525315 17.000000
-8.208853 1.039004 1.874156 42.000000
-7.976027 2.685374 2.050855 45.000000
-5.129191 1.619231 -0.785680 5.000000
-8.184091 1.040753 2.737675 31.000000
-7.929067 2.647905 1.614902 82.000000
-8.319977 2.721590 0.405255 14.000000
-8.014429 2.741788 2.961957 17.000000
-8.390807 1.046425 1.067224 233.000000
-8.273174 2.725901 0.823696 38.000000
-8.063608 1.023807 2.260685 37.000000
-7.924776 2.673087 1.614658 83.000000
-8.485529 1.060830 0.243383 19.000000
-7.923875 2.694261 2.038434 48.000000
-8.450008 1.068752 0.656772 71.000000
-5.130718 1.636410 -0.787366 8.000000
-8.184761 1.066150 2.738222 34.000000
-8.332269 1.072416 1.474998 289.000000
-8.109917 2.660664 -0.018537 11.000000
-8.063404 1.048631 2.260783 30.000000
-6.892018 2.240327 -0.362965 15.000000
-8.012457 2.768393 2.963254 21.000000
-8.268653 2.751975 0.823028 46.000000
-8.125492 1.053095 1.855022 49.000000
-7.958039 2.664810 1.204399 80.000000
-5.956281 1.917929 -0.614295 27.000000
-8.084905 2.770883 2.528849 24.000000
-8.339131 2.755677 0.405507 11.000000
-8.379722 1.070594 1.065489 313.000000
-7.958373 2.691647 1.204678 82.000000
-8.111238 2.688027 -0.019587 15.000000
-8.336806 1.098601 1.475659 228.000000
-5.103095 1.643996 -0.784363 13.000000
-7.965268 2.735552 2.050261 36.000000
-8.087426 2.799270 2.531246 14.000000
-8.494107 1.087757 0.242971 19.000000
-8.084108 1.076364 2.266817 36.000000
-8.178771 1.090678 2.736557 44.000000
-8.257447 2.775813 0.821716 38.000000
-5.911642 1.922610 -0.610822 42.000000
-8.100084 1.074630 1.849215 44.000000
-7.922253 2.698931 1.614801 96.000000
-6.835877 2.244265 -0.361035 12.000000
-8.011278 2.795347 2.964890 13.000000
-8.378397 1.096051 1.065012 290.000000
-8.336390 2.782542 0.404736 8.000000
-8.429894 1.091840 0.654754 179.000000
-8.092596 2.708605 -0.020577 14.000000
-8.077526 1.096374 1.844042 42.000000
-8.160045 1.111943 2.288434 37.000000
-8.329562 1.123147 1.474206 175.000000
-8.386830 1.122813 1.065744 392.000000
-8.252775 2.801832 0.821021 38.000000
-6.807213 2.257126 -0.360674 17.000000
-8.014474 2.823860 2.968151 15.000000
-7.958633 2.718462 1.204922 100.000000
-8.572884 1.106861 -0.175041 6.000000
-7.872759 2.729887 2.027379 77.000000
-8.484771 1.112287 0.242042 25.000000
-5.100785 1.659865 -0.785458 13.000000
-8.081746 2.824758 2.531042 16.000000
-8.431458 1.117729 0.654367 222.000000
-5.895318 1.936517 -0.610442 34.000000
-8.172722 1.115128 2.734858 52.000000
-7.916884 2.723762 1.614341 79.000000
-8.330741 2.808393 0.403796 9.000000
-8.016696 2.852074 2.971059 11.000000
-6.804994 2.278857 -0.361825 13.000000
-8.072019 2.728424 -0.021572 10.000000
-8.248970 2.828152 0.820401 26.000000
-7.863639 2.753324 2.026097 69.000000
-8.078702 2.851184 2.531675 19.000000
-5.083440 1.670662 -0.784144 10.000000
-8.383389 1.147951 1.064961 387.000000
-8.063602 1.119208 1.840848 44.000000
-8.193903 1.141958 2.298170 61.000000
-8.321273 1.147497 1.472562 136.000000
-7.912371 2.748889 1.614053 69.000000
-8.329738 2.835846 0.403060 8.000000
-8.565442 1.131791 -0.175743 8.000000
-8.433928 1.143752 0.654034 260.000000
-8.167543 1.139662 2.733458 54.000000
-5.842231 1.937853 -0.606065 39.000000
-8.462489 1.134971 0.240752 43.000000
-7.959745 2.745608 1.205288 76.000000
-7.855345 2.777103 2.025076 69.000000
-8.378886 1.172984 1.064078 439.000000
-8.202869 1.168606 2.300924 52.000000
-8.465881 1.161209 0.240176 75.000000
-8.078257 2.878645 2.533185 20.000000
-8.319730 1.172843 1.472154 181.000000
-8.054431 1.142718 1.838788 56.000000
-8.171666 1.165598 2.735249 36.000000
-8.570799 1.158522 -0.176716 5.000000
-8.078779 2.757698 -0.022680 13.000000
-7.908687 2.774389 1.613976 124.000000
-8.331460 2.864354 0.402478 5.000000
-5.805181 1.944408 -0.603408 27.000000
-8.016141 2.879404 2.972993 12.000000
-6.819688 2.306496 -0.363926 14.000000
-8.245066 2.854522 0.819803 41.000000
-7.961685 2.773162 1.205817 76.000000
-8.431379 1.169144 0.653349 205.000000
-7.905836 2.800252 1.614100 86.000000
-5.772841 1.952404 -0.601248 32.000000
-8.306700 2.883618 0.400673 8.000000
-7.855187 2.803869 2.026200 63.000000
-8.058689 1.168224 1.839841 56.000000
-8.067804 2.902534 2.531572 16.000000
-8.455338 1.185509 0.239244 90.000000
-8.430725 1.194846 0.652828 173.000000
-7.966318 2.801780 1.206778 96.000000
-8.011941 2.905478 2.973612 13.000000
-6.749407 2.304698 -0.361168 13.000000
-8.208887 1.194920 2.302882 51.000000
-8.374305 1.198030 1.063209 466.000000
-8.233562 2.878254 0.818477 37.000000
-8.325900 1.199373 1.473141 202.000000
-8.059006 2.777803 -0.023640 16.000000
-8.523612 1.177873 -0.176461 16.000000
-8.168195 1.190473 2.734519 40.000000
-8.234191 2.906264 0.818319 29.000000
-7.899226 2.824731 1.613433 85.000000
-8.013872 2.933806 2.976515 13.000000
-6.717826 2.316045 -0.360637 18.000000
-8.508046 1.201494 -0.176972 21.000000
-8.214832 1.221231 2.304803 42.000000
-7.849487 2.828604 2.025868 59.000000
-8.077338 1.195918 1.844176 32.000000
-8.372598 1.223448 1.062677 316.000000
-8.052809 2.924675 2.528505 11.000000
-8.168413 1.215860 2.735020 37.000000
-8.447695 1.210142 0.238355 98.000000
-8.025997 2.793094 -0.024560 7.000000
-7.961556 2.827039 1.206293 92.000000
-8.417174 1.218596 0.651291 141.000000
-8.323229 1.224574 1.472535 158.000000
-8.298851 2.908743 0.399628 16.000000
-5.065829 1.714620 -0.785754 10.000000
-5.751777 1.964130 -0.600342 33.000000
-8.005116 2.958176 2.975430 11.000000
-8.047640 2.950418 2.528556 13.000000
-7.954858 2.851603 1.205512 95.000000
-6.663656 2.319191 -0.358810 18.000000
-5.085676 1.738268 -0.790510 5.000000
-7.851915 2.856350 2.027655 82.000000
-8.368854 1.248551 1.061882 343.000000
-8.182251 1.228424 1.447406 43.000000
-8.491426 1.224871 -0.177471 47.000000
-8.407501 1.242859 0.650043 151.000000
-7.894391 2.849858 1.613132 87.000000
-8.075659 1.220576 1.843849 44.000000
-8.437014 1.234279 0.237375 119.000000
-8.214036 1.246534 2.304826 68.000000
-8.230984 2.932932 0.817777 23.000000
-8.166682 1.240951 2.734874 51.000000
-5.715688 1.970441 -0.597789 26.000000
-8.150297 1.248609 1.441636 50.000000
-8.213156 1.271869 2.304861 61.000000
-8.334865 1.209663 -0.586974 5.000000
-8.235165 2.962368 0.817982 21.000000
-8.485615 1.249829 -0.178211 32.000000
-8.439107 1.260358 0.236746 115.000000
-8.264145 2.952106 0.396652 5.000000
-8.400712 1.267559 0.649033 111.000000
-7.997550 2.836725 -0.026606 7.000000
-8.090275 1.247857 1.847292 36.000000
-7.947146 2.875834 1.204601 75.000000
-8.367972 1.274128 1.061471 358.000000
-5.704907 1.985586 -0.598010 24.000000
-5.068158 1.748858 -0.789187 5.000000
-8.001565 2.984553 2.976341 18.000000
-6.661221 2.340589 -0.359948 16.000000
-7.849687 2.882461 2.028266 68.000000
-8.160185 1.265321 2.733156 41.000000
-8.033406 2.972806 2.525774 19.000000
-7.892228 2.876030 1.613407 114.000000
-8.367008 1.299744 1.061075 338.000000
-5.722160 2.010808 -0.601324 37.000000
-7.999677 3.011641 2.977928 10.000000
-7.938423 2.899732 1.203564 87.000000
-7.858270 2.912729 2.031728 78.000000
-8.015511 2.993805 2.521871 15.000000
-8.130934 1.270673 1.438129 52.000000
-8.150797 1.289239 2.730506 36.000000
-6.640872 2.355562 -0.360040 13.000000
-8.232692 2.989475 0.817555 19.000000
-8.331049 1.234404 -0.587727 6.000000
-8.445067 1.287112 0.236235 110.000000
-7.850739 2.810252 -0.026837 7.000000
-7.890889 2.902591 1.613885 104.000000
-8.397786 1.292884 0.648340 120.000000
-8.211241 1.297089 2.304641 44.000000
-8.123087 1.278226 1.854946 54.000000
-8.477752 1.274491 -0.178888 36.000000
-6.554847 2.346419 -0.356331 28.000000
-8.243369 1.323199 1.882668 108.000000
-8.234809 3.018295 0.817559 31.000000
-8.360092 1.324372 1.059908 301.000000
-5.659850 2.007267 -0.595857 27.000000
-7.995957 3.038027 2.978826 12.000000
-8.449958 1.313718 0.235668 97.000000
-8.334058 1.260168 -0.589019 10.000000
-8.208308 1.322112 2.304125 48.000000
-8.110415 2.991342 1.229919 38.000000
-8.004743 3.017428 2.520218 16.000000
-7.890393 2.929479 1.614524 91.000000
-8.118322 1.293705 1.435804 51.000000
-8.147901 1.314157 2.730043 39.000000
-7.855284 2.838424 -0.027955 4.000000
-8.474755 1.299856 -0.179710 28.000000
-7.858585 2.939930 2.033033 80.000000
-8.248878 3.002487 0.394613 6.000000
-8.393802 1.318006 0.647543 123.000000
-5.035855 1.770796 -0.786986 8.000000
-8.109535 1.317306 1.434156 41.000000
-8.259389 3.034430 0.394411 4.000000
-8.204351 1.346954 2.303327 39.000000
-7.770664 2.833596 -0.028546 5.000000
-8.144934 1.339054 2.729567 31.000000
-8.388760 1.342939 0.646658 124.000000
-8.231238 3.045037 0.816997 18.000000
-8.320239 1.283295 -0.589084 10.000000
-7.856093 2.966100 2.033615 70.000000
-8.140254 3.030400 1.234719 26.000000
-8.453778 1.340190 0.235060 104.000000
-8.247076 1.349361 1.883634 124.000000
-8.468720 1.324725 -0.180476 33.000000
-8.354086 1.349117 1.058852 261.000000
-8.003749 3.044802 2.521677 10.000000
-7.985126 3.061661 2.977065 11.000000
-6.560750 2.370625 -0.357969 24.000000
-7.891648 2.957076 1.615526 94.000000
-5.031281 1.785856 -0.787801 6.000000
-5.654579 2.024243 -0.596709 32.000000
-7.997294 3.070126 2.521438 11.000000
-8.150501 3.062268 1.236570 29.000000
-8.198418 1.371478 2.302000 48.000000
-7.893718 2.985079 1.616721 66.000000
-7.857131 2.993705 2.035147 80.000000
-8.453568 1.366062 0.234357 129.000000
-8.230368 3.072864 0.816717 25.000000
-8.384626 1.368038 0.645856 118.000000
-8.460639 1.349266 -0.181185 31.000000
-8.247812 1.375084 1.883944 134.000000
-5.634329 2.035697 -0.595895 29.000000
-8.141886 1.363964 2.729098 34.000000
-6.525387 2.379579 -0.357194 23.000000
-8.357788 1.375509 1.059040 201.000000
-7.978606 3.087003 2.976964 14.000000
-7.770426 2.859857 -0.029634 5.000000
-8.103589 1.341379 1.433033 30.000000
-7.113772 1.096238 -0.854564 6.000000
-8.313248 1.307482 -0.589652 9.000000
-7.892015 3.011735 1.617177 75.000000
-8.195248 1.396511 2.301495 50.000000
-8.243656 1.400023 1.883167 160.000000
-8.319963 1.333942 -0.591224 8.000000
-8.451305 1.391649 0.233620 107.000000
-8.353578 1.400627 1.058256 173.000000
-8.143425 1.389722 2.730226 38.000000
-5.588901 2.037679 -0.592259 31.000000
-6.489089 2.388019 -0.356341 32.000000
-8.096595 1.365296 1.431756 50.000000
-7.130862 1.120583 -0.857787 10.000000
-8.141216 3.086786 1.235487 26.000000
-7.976376 3.114110 2.978533 8.000000
-7.855344 3.020317 2.035985 80.000000
-8.384343 1.393831 0.645371 106.000000
-8.236832 3.103598 0.817184 17.000000
-7.993421 3.096528 2.522066 14.000000
-8.459387 1.374958 -0.182042 18.000000
-7.849863 3.045497 2.035861 72.000000
-5.571434 2.049913 -0.591746 24.000000
-8.229260 3.128994 0.816258 17.000000
-8.328559 1.360761 -0.592965 17.000000
-7.969686 3.139455 2.978430 15.000000
-8.096325 1.390356 1.431665 45.000000
-7.677168 2.877228 -0.031197 5.000000
-6.466808 2.401554 -0.356321 27.000000
-8.338544 1.423826 1.056096 95.000000
-8.244231 1.425777 1.883475 104.000000
-7.105760 1.138071 -0.855761 8.000000
-8.461013 1.401134 -0.182989 15.000000
-7.886574 3.036954 1.616861 72.000000
-8.190112 1.421177 2.300436 51.000000
-8.143861 3.115918 1.236209 28.000000
-7.995711 3.125390 2.524662 7.000000
-8.383001 1.419440 0.644792 112.000000
-8.447981 1.417042 0.232838 140.000000
-8.143957 1.415312 2.731019 31.000000
-8.444582 1.442381 0.232023 115.000000
-8.221625 3.154325 0.815301 11.000000
-8.239938 1.450634 1.882647 112.000000
-7.958564 3.162972 2.976646 15.000000
-5.543722 2.058143 -0.590104 22.000000
-7.995252 3.153178 2.526373 7.000000
-7.085508 1.156203 -0.854371 18.000000
-8.150109 3.146494 1.237457 16.000000
-7.606781 2.876323 -0.031841 8.000000
-8.151891 1.442225 2.734304 20.000000
-8.092107 1.414685 1.430854 32.000000
-8.327238 1.385920 -0.594007 23.000000
-8.141734 1.414519 1.030960 46.000000
-8.184914 1.445776 2.299345 26.000000
-7.849739 3.072782 2.037121 70.000000
-8.457634 1.426433 -0.183851 11.000000
-6.411869 2.402457 -0.354388 26.000000
-7.881071 3.062122 1.616514 69.000000
-8.382568 1.445181 0.644253 135.000000
-8.094594 1.440269 1.431259 55.000000
-5.517863 2.066958 -0.588656 27.000000
-8.146666 1.466819 2.733182 39.000000
-8.317978 1.409747 -0.594447 25.000000
-7.993795 3.180662 2.527812 13.000000
-8.438151 1.467216 0.231146 99.000000
-8.187214 1.471783 2.300412 41.000000
-8.233644 1.475156 1.881393 128.000000
-8.152553 3.175708 1.238155 19.000000
-7.879126 3.088768 1.616932 90.000000
-8.210194 3.178210 0.813992 18.000000
-8.450237 1.451062 -0.184604 8.000000
-7.845901 3.098675 2.037449 64.000000
-7.959597 3.191468 2.979497 13.000000
-7.130751 1.185473 -0.861190 7.000000
-8.382051 1.470963 0.643727 122.000000
-6.390513 2.416017 -0.354424 31.000000
-7.481460 2.853698 -0.032081 16.000000
-8.138387 1.439118 1.030283 42.000000
-8.205156 3.204673 0.813345 12.000000
-8.381450 1.496801 0.643227 115.000000
-7.844662 3.125713 2.038505 54.000000
-5.487360 2.073872 -0.586665 26.000000
-7.048783 1.192907 -0.852027 20.000000
-8.186580 1.497333 2.300698 31.000000
-7.488553 2.882170 -0.033186 9.000000
-8.319451 1.435489 -0.595671 25.000000
-8.231103 1.500416 1.881044 130.000000
-7.873428 3.114010 1.616619 96.000000
-8.457528 1.478351 -0.185691 8.000000
-8.133984 1.463575 1.029506 46.000000
-6.345865 2.420449 -0.353050 26.000000
-7.957888 3.218969 2.981379 7.000000
-8.150680 1.493192 2.735240 32.000000
-8.291684 1.502064 1.466190 114.000000
-8.437546 1.493144 0.230446 111.000000
-8.000216 3.211473 2.531821 12.000000
-8.173268 3.212357 1.241667 7.000000
-8.430963 1.517972 0.229578 100.000000
-8.475550 1.507646 -0.187065 12.000000
-7.839743 3.151280 2.038602 83.000000
-8.158942 3.235080 1.239851 17.000000
-8.130484 1.488181 1.028836 52.000000
-6.308686 2.427540 -0.352124 33.000000
-7.870389 3.140333 1.616853 95.000000
-8.376849 1.521899 0.642411 103.000000
-8.187099 3.225932 0.811408 15.000000
-8.003874 3.241237 2.534961 18.000000
-8.149023 1.518514 2.735387 34.000000
-7.012761 1.207992 -0.848643 17.000000
-5.932205 1.000201 -1.011144 30.000000
-8.290026 1.527591 1.465894 114.000000
-8.210728 3.213504 0.387446 4.000000
-8.226572 1.525289 1.880238 122.000000
-8.326733 1.462291 -0.597355 24.000000
-8.186817 1.523050 2.301235 35.000000
-5.479100 2.089292 -0.587187 25.000000
-7.949121 3.243574 2.980603 24.000000
-5.437491 2.091522 -0.583963 26.000000
-8.375119 1.547483 0.641779 104.000000
-8.323138 1.487120 -0.598268 17.000000
-6.974756 1.222475 -0.845037 20.000000
-5.935790 1.018781 -1.012935 34.000000
-7.431850 2.911092 -0.034960 9.000000
-8.287332 1.552880 1.465388 110.000000
-8.180085 3.251531 0.810527 14.000000
-8.150080 3.259927 1.238838 16.000000
-8.142647 1.542879 2.733918 32.000000
-8.005682 3.270263 2.537496 14.000000
-8.427258 1.543271 0.228745 80.000000
-7.951630 3.272838 2.984080 14.000000
-8.224853 1.550647 1.880054 92.000000
-8.184152 1.548178 2.300929 35.000000
-7.870921 3.168100 1.617801 76.000000
-7.833866 3.176423 2.038428 59.000000
-8.127893 1.512911 1.028252 51.000000
-8.473813 1.533365 -0.187996 9.000000
-6.263176 2.431077 -0.350715 26.000000
-8.011803 3.301201 2.541449 14.000000
-8.423474 1.568581 0.227921 49.000000
-7.827003 3.201204 2.038025 61.000000
-8.224964 1.576403 1.880317 94.000000
-8.149380 3.288149 1.239086 13.000000
-6.249219 2.446981 -0.351188 29.000000
-8.167453 3.274882 0.809110 5.000000
-8.373307 1.573090 0.641154 100.000000
-7.954027 3.302165 2.987560 10.000000
-8.159608 3.249698 0.383717 6.000000
-8.182350 1.573508 2.300899 56.000000
-8.311624 1.510500 -0.598583 8.000000
-6.908421 1.231562 -0.837847 26.000000
-5.915082 1.033024 -1.010419 34.000000
-7.404398 2.925703 -0.035855 6.000000
-8.133992 1.539358 1.028780 39.000000
-7.871350 3.195919 1.618754 68.000000
-5.368191 2.082515 -0.577577 17.000000
-8.145503 1.569075 2.735611 33.000000
-8.284556 1.578186 1.464889 108.000000
-8.478873 1.560403 -0.189090 10.000000
-8.157495 3.299380 0.807995 5.000000
-8.009829 3.328908 2.542885 6.000000
-8.145468 1.594803 2.736388 35.000000
-8.177621 1.598335 2.300097 56.000000
-5.902096 1.048619 -1.009255 37.000000
-7.955419 3.331227 2.990738 13.000000
-6.900629 1.251238 -0.838012 22.000000
-7.822724 3.227157 2.038356 70.000000
-8.149475 3.316834 1.239501 13.000000
-8.423535 1.594703 0.227228 59.000000
-5.340526 2.089804 -0.575879 19.000000
-8.281692 1.603549 1.464423 116.000000
-7.393591 2.946993 -0.036842 6.000000
-6.209286 2.452411 -0.350068 29.000000
-8.480899 1.586981 -0.190080 6.000000
-7.869844 3.223071 1.619359 74.000000
-8.230722 1.603379 1.881930 91.000000
-8.282403 1.530545 -0.597532 8.000000
-8.362601 1.597038 0.639898 85.000000
-8.130260 1.563995 1.028110 49.000000
-8.229704 1.629036 1.881991 69.000000
-8.473026 1.611663 -0.190837 11.000000
-6.186950 2.464761 -0.350014 31.000000
-8.268807 1.553431 -0.597674 14.000000
-8.175652 1.623709 2.300086 43.000000
-8.191408 1.589058 0.626540 45.000000
-8.134239 1.590171 1.028410 52.000000
-7.875497 3.253273 1.621449 63.000000
-8.148563 3.345157 1.239764 9.000000
-8.423515 1.620828 0.226522 60.000000
-8.006002 3.355869 2.543741 10.000000
-8.139774 1.619396 2.735262 33.000000
-8.279718 1.629092 1.464115 117.000000
-7.292951 2.931504 -0.037148 16.000000
-5.890037 1.064318 -1.008269 47.000000
-7.818367 3.253102 2.038675 73.000000
-7.954113 3.359199 2.992913 13.000000
-6.882055 1.268833 -0.836829 18.000000
-5.234504 2.065247 -0.565246 11.000000
-8.158507 3.328411 0.807955 9.000000
-6.181235 2.483767 -0.351003 34.000000
-8.009176 3.385790 2.546809 14.000000
-5.236418 2.083973 -0.566930 14.000000
-7.953621 3.387493 2.995369 10.000000
-8.176762 1.611542 0.624945 48.000000
-8.422441 1.646693 0.225739 61.000000
-8.144846 3.372277 1.239559 16.000000
-8.138679 1.644853 2.735661 37.000000
-8.142036 1.617100 1.029148 53.000000
-8.174149 3.363549 0.809307 5.000000
-8.278647 1.654757 1.463927 118.000000
-8.452337 1.633713 -0.191325 8.000000
-7.875645 3.281168 1.622366 81.000000
-7.265514 2.945503 -0.038043 10.000000
-5.888575 1.081926 -1.009214 33.000000
-8.232637 1.571773 -0.596159 7.000000
-8.170794 1.648425 2.299222 44.000000
-7.816641 3.280121 2.039652 55.000000
-8.227667 1.654428 1.881781 88.000000
-8.133385 3.324230 0.380486 6.000000
-6.837125 1.281194 -0.832352 22.000000
-6.821398 1.299028 -0.831573 27.000000
-8.015761 3.417293 2.551003 7.000000
-6.150549 2.492458 -0.350471 38.000000
-5.287926 2.123165 -0.574306 26.000000
-8.199367 1.590503 -0.594859 11.000000
-8.187815 3.398043 0.810472 5.000000
-7.214976 2.949764 -0.038748 8.000000
-7.872983 3.307943 1.622720 72.000000
-8.186680 1.651725 1.034538 61.000000
-8.277494 1.680437 1.463738 126.000000
-5.856110 1.093563 -1.004639 39.000000
-8.462955 1.661962 -0.192603 4.000000
-8.141217 1.671104 2.737319 36.000000
-8.230328 1.680826 1.882668 95.000000
-8.111298 3.343449 0.378778 15.000000
-8.146506 3.401731 1.240186 16.000000
-7.948700 3.413933 2.996177 8.000000
-7.811249 3.305628 2.039687 73.000000
-8.420307 1.672375 0.224931 58.000000
-8.171823 1.635961 0.624087 41.000000
-8.171520 1.674319 2.299961 35.000000
-7.178288 2.959626 -0.039513 9.000000
-8.149851 3.432090 1.241132 9.000000
-6.784215 1.312586 -0.828032 22.000000
-8.093741 3.364591 0.377326 12.000000
-8.003725 3.440888 2.549310 8.000000
-5.838133 1.107920 -1.002613 42.000000
-8.139006 1.696483 2.737448 31.000000
-7.809303 3.332762 2.040704 54.000000
-8.274317 1.705805 1.463254 125.000000
-8.327337 1.706882 1.052078 121.000000
-8.406334 1.695721 0.223879 35.000000
-8.092739 1.594339 -0.587930 12.000000
-8.463677 1.688376 -0.193586 5.000000
-7.867488 3.333648 1.622555 69.000000
-8.222383 1.705114 1.881188 101.000000
-8.167429 1.699314 2.299411 33.000000
-6.094976 2.490668 -0.348372 32.000000
-7.945374 3.441218 2.997686 13.000000
-8.165822 1.660245 0.623204 57.000000
-5.255651 2.128056 -0.572069 27.000000
-8.176337 1.688010 0.623561 32.000000
-6.068917 2.500958 -0.348076 41.000000
-8.405995 1.721865 0.223163 55.000000
-7.801922 3.357576 2.040307 58.000000
-8.000401 3.468306 2.550434 11.000000
-8.133005 1.721057 2.736313 22.000000
-8.079809 3.387222 0.376036 17.000000
-8.038918 1.608356 -0.585006 11.000000
-8.144902 3.458968 1.240824 9.000000
-8.164203 1.724502 2.299122 33.000000
-8.215322 1.729573 1.879922 80.000000
-6.744094 1.325342 -0.824118 30.000000
-7.935917 3.465832 2.996886 8.000000
-8.323097 1.732122 1.051366 171.000000
-5.823985 1.122948 -1.001279 26.000000
-7.864615 3.360521 1.622945 72.000000
-5.249080 2.143519 -0.572785 30.000000
-8.452569 1.712375 -0.194276 7.000000
-8.275879 1.732198 1.463619 139.000000
-8.189051 3.456552 0.810353 2.000000
-7.103849 2.953312 -0.039961 10.000000
-7.859887 3.386540 1.622910 67.000000
-8.318795 1.757268 1.050599 157.000000
-5.799174 1.135697 -0.998080 32.000000
-8.164689 1.750427 2.299847 43.000000
-8.016331 1.628485 -0.584511 6.000000
-7.058046 2.958675 -0.040676 10.000000
-8.058496 3.406565 0.374368 14.000000
-8.004043 3.498768 2.553761 8.000000
-6.052054 2.514956 -0.348380 30.000000
-8.133447 1.746952 2.737326 26.000000
-6.721453 1.341397 -0.822469 22.000000
-8.159466 1.709919 0.621812 59.000000
-8.397762 1.746276 0.222197 57.000000
-7.799838 3.384649 2.041265 58.000000
-8.273523 1.757695 1.463244 140.000000
-8.145349 3.488136 1.241292 14.000000
-8.456072 1.739325 -0.195397 7.000000
-5.182004 2.133397 -0.566552 15.000000
-8.212022 1.754753 1.879479 64.000000
-8.193593 3.516622 0.810467 4.000000
-7.922897 3.517531 2.997480 11.000000
-6.673519 1.352062 -0.817599 18.000000
-8.312477 1.781975 1.049581 131.000000
-8.172747 1.738309 0.622324 30.000000
-8.161331 1.775530 2.299497 46.000000
-8.208645 1.779925 1.879029 71.000000
-8.267242 1.782341 1.462181 110.000000
-5.780127 1.149495 -0.995919 22.000000
-6.971859 2.946394 -0.041036 15.000000
-7.992690 3.522616 2.552288 9.000000
-7.860468 3.414938 1.623986 90.000000
-6.014969 2.520231 -0.347433 32.000000
-5.190981 2.155206 -0.569096 18.000000
-8.454601 1.765265 -0.196400 8.000000
-7.794998 3.410551 2.041514 58.000000
-8.037140 3.425806 0.372696 15.000000
-7.914663 1.631804 -0.577970 17.000000
-8.131955 1.772448 2.737703 40.000000
-8.347437 1.761582 0.220195 35.000000
-8.148416 3.518527 1.242167 8.000000
-8.155055 1.800068 2.298388 43.000000
-7.868624 1.646508 -0.575629 7.000000
-5.984310 2.528130 -0.346847 30.000000
-8.208029 1.805812 1.879278 72.000000
-8.020293 3.447023 0.371273 21.000000
-8.123878 1.796563 2.735920 37.000000
-8.152246 3.549445 1.243216 8.000000
-8.258023 1.768125 0.217291 22.000000
-7.794475 3.438517 2.042970 81.000000
-7.985599 3.548475 2.552263 12.000000
-6.624610 1.362308 -0.812562 23.000000
-8.261831 1.807258 1.461331 112.000000
-5.738877 1.158615 -0.989745 29.000000
-8.306072 1.806737 1.048606 132.000000
-6.976607 2.973093 -0.042137 16.000000
-7.853735 3.440248 1.623608 71.000000
-5.166967 2.163020 -0.567801 17.000000
-8.443273 1.789172 -0.197107 6.000000
-8.170338 1.763432 0.621707 43.000000
-7.904294 3.567010 2.996185 7.000000
-5.019215 1.005920 -1.119935 26.000000
-5.712079 1.170579 -0.986152 19.000000
-5.921611 2.521946 -0.344245 35.000000
-8.299587 1.831504 1.047644 111.000000
-7.792068 3.465737 2.043967 86.000000
-6.598015 1.377085 -0.810360 33.000000
-7.994132 3.581505 2.557317 7.000000
-8.204470 1.831088 1.878883 80.000000
-8.010698 3.471416 0.370191 26.000000
-7.815746 1.659494 -0.572744 10.000000
-8.235981 1.789127 0.216057 19.000000
-8.151432 3.578430 1.243583 8.000000
-8.425039 1.811554 -0.197622 3.000000
-8.153395 1.825688 2.298626 37.000000
-7.853184 3.468391 1.624544 72.000000
-5.083631 2.145064 -0.559593 9.000000
-8.180498 1.791416 0.622050 38.000000
-6.950101 2.986242 -0.042952 16.000000
-8.119423 1.821520 2.735408 24.000000
-8.256339 1.832186 1.460494 129.000000
-5.666960 1.178402 -0.979303 22.000000
-8.204146 1.807726 0.214531 9.000000
-6.920856 2.997972 -0.043785 10.000000
-7.753127 1.669947 -0.569155 15.000000
-7.994666 3.492857 0.368769 23.000000
-8.146037 3.605322 1.243203 7.000000
-8.434075 1.839840 -0.198910 6.000000
-5.888276 2.528180 -0.343501 28.000000
-7.857051 3.498500 1.626353 82.000000
-5.117120 2.177459 -0.565003 18.000000
-8.151681 1.851222 2.298804 37.000000
-8.116772 1.846805 2.735465 30.000000
-5.007405 1.018719 -1.118459 24.000000
-7.793151 3.494499 2.045843 87.000000
-8.295949 1.856820 1.046988 106.000000
-8.250792 1.857005 1.459597 119.000000
-8.208084 1.823363 0.623641 36.000000
-6.551999 1.387422 -0.805716 31.000000
-7.991249 3.609329 2.558652 6.000000
-8.205609 1.857367 1.879521 75.000000
-8.140559 3.632204 1.242811 12.000000
-8.239415 1.880453 1.457669 101.000000
-5.069450 2.174446 -0.560958 15.000000
-7.791487 3.522072 2.047006 80.000000
-7.847403 3.522538 1.625361 63.000000
-6.883383 3.005889 -0.044544 9.000000
-7.898325 3.622212 2.999704 10.000000
-8.191766 1.830592 0.213471 16.000000
-6.497261 1.395563 -0.799952 19.000000
-7.976954 3.631921 2.556319 9.000000
-8.291269 1.881896 1.046199 134.000000
-8.148952 1.876531 2.298704 38.000000
-8.334689 1.878311 0.632627 77.000000
-5.862262 2.537459 -0.343215 29.000000
-8.110349 1.871208 2.734255 27.000000
-8.420591 1.863117 -0.199621 10.000000
-5.639167 1.189737 -0.975572 19.000000
-7.712899 1.685036 -0.567290 17.000000
-7.991349 3.519937 0.367906 27.000000
-8.200969 1.882322 1.878836 73.000000
-5.802497 2.531610 -0.340769 21.000000
-8.129559 3.656681 1.241627 5.000000
-8.395342 1.883716 -0.199986 7.000000
-7.763085 1.720476 -0.572376 8.000000
-7.841223 3.548254 1.625145 63.000000
-8.197185 1.907558 1.878405 71.000000
-8.294230 1.908845 1.046419 78.000000
-5.606550 1.199898 -0.970945 17.000000
-7.976077 3.541751 0.366550 29.000000
-7.959082 3.652902 2.552896 10.000000
-5.049108 2.183295 -0.560077 14.000000
-8.342535 1.906445 0.632767 76.000000
-8.108448 1.896759 2.734651 19.000000
-8.146127 1.901906 2.298639 47.000000
-6.841345 3.011616 -0.045222 17.000000
-8.214530 1.900741 1.453398 91.000000
-6.471579 1.409948 -0.797883 20.000000
-7.794107 3.551774 2.049367 100.000000
-8.184183 1.854593 0.212566 22.000000
-7.837620 3.575235 1.625498 67.000000
-8.346398 1.933757 0.632629 89.000000
-8.065008 1.891069 1.427055 84.000000
-6.749210 2.994492 -0.045398 16.000000
-5.786522 2.545091 -0.341067 25.000000
-8.294198 1.935171 1.046288 82.000000
-8.151220 1.872654 0.211070 16.000000
-8.368094 1.903759 -0.200279 10.000000
-8.128367 3.685713 1.241970 5.000000
-7.970740 3.568084 0.365653 24.000000
-7.786032 3.576619 2.048938 84.000000
-7.951561 3.678735 2.552863 6.000000
-5.010599 2.183947 -0.557049 8.000000
-5.576808 1.210542 -0.966821 15.000000
-7.656666 1.720275 -0.565338 12.000000
-8.189519 1.931905 1.877115 74.000000
-8.149772 1.928899 2.300453 31.000000
-8.105535 1.922123 2.734747 31.000000
-6.433291 1.421359 -0.794177 20.000000
-7.959890 3.591854 0.364471 28.000000
-8.147733 1.954485 2.300622 42.000000
-8.123511 3.713035 1.241717 5.000000
-7.930119 3.697915 2.548291 14.000000
-6.744615 3.016584 -0.046437 19.000000
-5.540327 1.219446 -0.961508 17.000000
-6.391125 1.431610 -0.790002 38.000000
-7.777910 3.601380 2.048466 78.000000
-8.014270 1.904391 1.418191 95.000000
-8.154218 1.899029 0.210393 11.000000
-8.335943 1.922440 -0.200485 14.000000
-8.180853 1.955921 1.875560 65.000000
-8.107177 1.948549 2.736365 36.000000
-8.339515 1.958480 0.631647 79.000000
-7.616358 1.734786 -0.563448 14.000000
-8.174294 3.714047 0.807756 3.000000
-5.739613 2.544445 -0.339427 27.000000
-8.292169 1.960977 1.045866 86.000000
-7.833067 3.601744 1.625622 60.000000
-8.103216 1.973595 2.736077 20.000000
-8.116785 3.739491 1.241166 4.000000
-8.335471 1.983855 0.630858 52.000000
-7.929932 3.606759 0.362428 27.000000
-8.287172 1.986049 1.045057 91.000000
-5.509599 1.229452 -0.957245 7.000000
-7.921641 3.723168 2.547913 15.000000
-5.729088 2.560107 -0.340109 36.000000
-8.150300 1.981206 2.302097 37.000000
-6.687250 3.014446 -0.046972 22.000000
-7.827550 3.627810 1.625539 58.000000
-7.540128 1.740557 -0.558778 22.000000
-7.770606 3.626512 2.048207 79.000000
-8.009465 1.928695 1.417460 95.000000
-8.157132 1.925408 0.209692 6.000000
-8.292091 1.938128 -0.200395 24.000000
-8.171178 1.979635 1.873765 63.000000
-6.379873 1.448819 -0.789829 31.000000
-8.149960 2.007314 2.302805 36.000000
-5.704001 2.569091 -0.339839 26.000000
-7.829912 3.657723 1.627150 65.000000
-8.279199 2.010452 1.043917 110.000000
-7.508536 1.756624 -0.557541 15.000000
-8.168990 2.005267 1.873749 53.000000
-8.289993 1.963736 -0.201390 18.000000
-8.335214 2.010236 0.630390 46.000000
-8.103763 1.999855 2.737388 28.000000
-7.763191 3.651688 2.047976 80.000000
-8.154126 1.950457 0.208883 6.000000
-8.002660 1.952568 1.416421 118.000000
-7.921673 3.631696 0.361378 24.000000
-8.118905 3.770222 1.242015 5.000000
-6.324162 1.455507 -0.783885 39.000000
-6.668056 3.029680 -0.047851 20.000000
-7.879320 3.732232 2.536621 21.000000
-5.501877 1.244702 -0.957127 7.000000
-5.630004 2.555283 -0.336407 16.000000
-8.281985 1.987958 -0.202209 12.000000
-8.164821 2.030459 1.873313 49.000000
-6.281975 1.465141 -0.779666 44.000000
-8.149523 2.033475 2.303528 34.000000
-8.099613 2.024997 2.737149 17.000000
-8.153950 1.976261 0.208159 3.000000
-6.576326 3.011032 -0.047971 23.000000
-7.833033 3.688143 1.628958 69.000000
-7.792950 3.719748 2.511050 34.000000
-5.469200 1.254040 -0.952474 5.000000
-8.269218 2.034378 1.042553 107.000000
-7.757430 3.677732 2.048225 56.000000
-7.472068 1.771374 -0.555903 16.000000
-7.871714 3.637122 0.358517 11.000000
-8.336801 2.037154 0.630083 27.000000
-7.997685 1.976936 1.415738 136.000000
-8.272001 2.031707 0.210186 9.000000
-5.609503 2.565975 -0.336419 30.000000
-7.755105 3.705430 2.049376 73.000000
-8.166257 2.057058 1.874154 45.000000
-7.424930 1.783263 -0.553452 18.000000
-7.792002 3.628137 0.354334 9.000000
-7.720546 3.713467 2.489960 46.000000
-8.091722 2.049137 2.735624 14.000000
-5.449919 1.266384 -0.950272 4.000000
-7.992646 2.001248 1.415026 124.000000
-8.229356 2.050629 1.037411 70.000000
-6.269674 1.481768 -0.779340 30.000000
-7.828981 3.715160 1.629256 60.000000
-8.148086 2.059367 2.303955 30.000000
-6.569842 3.031822 -0.048975 21.000000
-8.338309 2.064054 0.629743 50.000000
-8.260327 2.008733 -0.202690 20.000000
-8.136455 2.075520 1.867772 51.000000
-8.345537 2.092420 0.629800 34.000000
-7.831048 3.745147 1.630816 53.000000
-5.423913 1.276967 -0.946867 3.000000
-8.087454 2.074162 2.735322 17.000000
-7.385532 1.796772 -0.551628 20.000000
-8.258014 2.034226 -0.203730 40.000000
-7.745805 3.634571 0.351603 11.000000
-8.212551 2.072554 1.035144 60.000000
-6.229392 1.491422 -0.775406 28.000000
-7.752707 3.733103 2.050497 79.000000
-6.529870 3.036721 -0.049650 28.000000
-5.593511 2.578665 -0.336740 29.000000
-8.143784 2.084489 2.303552 34.000000
-7.988500 2.025749 1.414451 96.000000
-7.730087 3.747021 2.495481 35.000000
-8.151365 3.852437 0.804985 4.000000
-8.329722 2.072577 0.210745 9.000000
-7.795997 3.687098 0.353105 12.000000
-8.104427 2.070631 1.021436 74.000000
-5.556746 2.581457 -0.335695 34.000000
-6.199696 1.503519 -0.772826 38.000000
-8.343971 2.118637 0.629229 45.000000
-8.158516 3.885947 0.805593 3.000000
-8.090436 2.101168 2.737545 28.000000
-7.988081 2.051282 1.414573 142.000000
-7.755427 3.763415 2.053027 67.000000
-6.511571 3.051780 -0.050532 23.000000
-8.143118 2.110632 2.304230 39.000000
-7.706797 3.764490 2.490371 45.000000
-7.838282 3.777812 1.633499 39.000000
-8.121702 2.097842 1.864899 52.000000
-5.440919 1.298031 -0.951286 11.000000
-8.257553 2.060258 -0.204802 29.000000
-7.351917 1.811561 -0.550234 16.000000
-6.483321 3.062015 -0.051289 24.000000
-8.065486 2.086358 1.016449 89.000000
-6.174793 1.516693 -0.770854 19.000000
-7.817168 3.796676 1.630287 50.000000
-8.140496 2.136326 2.304395 35.000000
-8.035212 2.100994 1.845503 74.000000
-7.987572 2.076867 1.414711 103.000000
-8.243454 2.082845 -0.205484 22.000000
-8.346176 2.145912 0.628962 25.000000
-7.300888 1.821755 -0.547447 21.000000
-7.719118 3.678597 0.349085 7.000000
-8.089648 2.127262 2.738531 22.000000
-7.711789 3.796056 2.494520 66.000000
-7.760631 3.795111 2.056267 59.000000
-5.543419 2.595283 -0.336160 23.000000
-8.365294 2.134875 0.210038 18.000000
-8.138162 3.959967 1.248312 4.000000
-8.230260 2.105609 -0.206201 24.000000
-7.676489 3.686306 0.346559 9.000000
-7.248899 1.831400 -0.544583 18.000000
-7.714095 3.826380 2.497814 75.000000
-8.139657 2.162519 2.305079 33.000000
-6.444273 3.066862 -0.051929 11.000000
-8.387742 2.167496 0.209787 5.000000
-8.049542 2.108011 1.014351 91.000000
-7.761370 3.824686 2.058331 55.000000
-8.344436 2.172185 0.628396 38.000000
-7.999658 2.117377 1.837864 78.000000
-7.986985 2.102458 1.414837 112.000000
-6.165245 1.533658 -0.770894 30.000000
-5.501288 2.595166 -0.334743 23.000000
-8.086033 2.152613 2.738566 17.000000
-7.806579 3.820687 1.629283 55.000000
-7.614181 3.684032 0.343149 13.000000
-6.370234 3.054329 -0.052196 22.000000
-7.962214 2.132982 1.829754 109.000000
-8.083279 2.178148 2.738872 28.000000
-6.100907 1.536358 -0.763805 38.000000
-7.762037 3.854238 2.060354 67.000000
-8.033556 2.129523 1.012212 108.000000
-7.801219 3.847246 1.629345 57.000000
-8.340700 2.197884 0.627643 44.000000
-5.475380 2.602634 -0.334405 25.000000
-7.981576 2.126706 1.414076 111.000000
-7.706052 3.851476 2.497711 62.000000
-8.140617 2.189169 2.306249 31.000000
-7.206568 1.843219 -0.542510 25.000000
-5.348370 1.325305 -0.938391 10.000000
-8.230542 2.131825 -0.207337 27.000000
-8.400419 2.197628 0.209262 13.000000
-5.463816 2.617012 -0.335002 26.000000
-8.028996 2.154129 1.011530 90.000000
-8.139625 2.215355 2.306899 39.000000
-7.567166 3.688980 0.340424 8.000000
-8.150167 4.003000 0.804448 5.000000
-8.226874 2.157054 -0.208355 33.000000
-8.080434 2.203710 2.739188 22.000000
-7.162302 1.854313 -0.540265 16.000000
-7.761716 3.883413 2.062151 74.000000
-8.394650 2.222929 0.208324 9.000000
-5.317508 1.334040 -0.934094 8.000000
-6.353734 3.069672 -0.053091 16.000000
-7.705608 3.880517 2.500133 74.000000
-7.977990 2.151489 1.413664 119.000000
-7.955784 2.156997 1.828836 99.000000
-6.074995 1.548768 -0.761722 33.000000
-8.332067 2.222296 0.626544 37.000000
-7.965114 3.959304 1.664950 20.000000
-8.394578 2.249856 0.207551 7.000000
-6.317478 3.075209 -0.053731 20.000000
-7.702466 3.908329 2.501741 61.000000
-7.473678 3.670526 0.335732 15.000000
-5.272356 1.338893 -0.927149 4.000000
-7.973359 2.176062 1.413113 115.000000
-8.328159 2.248060 0.625834 31.000000
-7.942631 3.978001 1.661526 12.000000
-7.756929 3.910463 2.062816 58.000000
-8.023390 2.178520 1.010758 110.000000
-5.426243 2.618570 -0.333856 21.000000
-6.036595 1.557772 -0.757975 32.000000
-7.960545 2.184210 1.830555 95.000000
-8.085716 2.231653 2.742347 13.000000
-7.118993 1.865467 -0.538061 29.000000
-8.141314 2.242398 2.308373 43.000000
-8.220225 2.181554 -0.209260 45.000000
-7.958645 2.209590 1.830737 80.000000
-8.386714 2.274652 0.206585 8.000000
-7.955985 4.014955 1.665630 5.000000
-8.138282 2.268134 2.308507 35.000000
-7.971505 2.201411 1.413052 120.000000
-5.391396 2.621248 -0.332889 19.000000
-7.752925 3.937946 2.063696 55.000000
