# .PCD v0.7 - Point Cloud Data file format
VERSION 0.7
FIELDS x y z intensity
SIZE 4 4 4 4
TYPE F F F F
COUNT 1 1 1 1
WIDTH 1212
HEIGHT 1
VIEWPOINT 0 0 0 1 0 0 0
POINTS 1212
DATA ascii
3.707428 -7.371831 4.350954 4.000000
3.693892 -7.401393 4.361638 5.000000
3.996985 -8.038752 4.171368 8.000000
3.964668 -8.035504 4.163409 10.000000
3.655514 -7.496358 4.397404 5.000000
3.926818 -8.020720 4.149580 9.000000
3.887509 -8.002513 4.134075 7.000000
3.853081 -7.993954 4.123600 10.000000
3.815215 -7.977888 4.109352 9.000000
3.774759 -7.955925 4.092169 6.000000
3.756521 -7.980607 4.098882 9.000000
3.545356 -7.562757 4.403929 4.000000
3.722412 -7.971526 4.088407 9.000000
3.692594 -7.971373 4.082543 6.000000
3.674946 -7.997509 4.090094 5.000000
3.657925 -8.025264 4.098484 4.000000
3.628797 -8.026519 4.093458 12.000000
3.606383 -8.042581 4.095979 11.000000
3.582797 -8.056092 4.097241 8.000000
3.430920 -7.747250 4.467109 9.000000
3.550366 -8.049601 4.088443 7.000000
3.349352 -7.690203 4.422545 12.000000
3.519465 -8.046313 4.081321 9.000000
3.321526 -7.690683 4.416978 10.000000
3.495484 -8.058735 4.082165 11.000000
3.466078 -8.058577 4.076720 5.000000
3.439198 -8.064159 4.074209 11.000000
3.408427 -8.060455 4.067088 12.000000
3.239251 -7.693984 4.401670 7.000000
3.377360 -8.055801 4.059546 14.000000
3.218360 -7.710421 4.405389 8.000000
3.348445 -8.056063 4.054521 13.000000
3.168968 -7.725101 4.402612 7.000000
3.319906 -8.057061 4.049913 8.000000
3.293796 -8.063845 4.048242 10.000000
3.153595 -7.755293 4.414224 4.000000
3.264609 -8.062970 4.042797 11.000000
3.140054 -7.790392 4.428623 5.000000
3.234443 -8.059464 4.036094 11.000000
3.205672 -8.059225 4.031068 11.000000
3.178599 -8.063107 4.028138 12.000000
3.137981 -8.032229 4.008019 14.000000
3.111683 -8.037583 4.005929 17.000000
3.942804 -10.234505 4.439454 5.000000
3.051332 -8.027667 3.991683 11.000000
2.948200 -7.793053 4.393366 4.000000
3.014524 -8.004704 3.975757 7.000000
2.919922 -7.790448 4.386870 5.000000
2.890146 -7.783592 4.378052 4.000000
2.995030 -8.027520 3.982469 11.000000
3.835412 -10.235602 4.424542 6.000000
3.794301 -10.221228 4.413350 9.000000
2.960940 -8.011123 3.969897 12.000000
2.933849 -8.013347 3.966547 10.000000
2.902747 -8.004386 3.957748 10.000000
3.739451 -10.266102 4.422693 7.000000
2.876640 -8.008979 3.955656 6.000000
2.846879 -8.003223 3.948533 8.000000
2.815973 -7.993935 3.939733 11.000000
2.791733 -8.003391 3.940157 10.000000
2.763606 -8.001618 3.935130 12.000000
3.526628 -10.265619 4.393986 6.000000
2.717658 -8.027880 3.939750 10.000000
3.478978 -10.228960 4.373836 7.000000
3.463570 -10.287060 4.393997 5.000000
2.689552 -8.025847 3.934723 7.000000
2.625015 -7.874125 4.376705 5.000000
3.437568 -10.314356 4.401094 7.000000
3.990838 -11.925624 4.374387 9.000000
3.943529 -11.905511 4.362633 6.000000
3.917292 -11.948984 4.374072 7.000000
3.350595 -10.262935 4.370497 6.000000
2.590021 -8.055644 3.933481 5.000000
3.871861 -11.933972 4.364278 13.000000
2.520356 -7.881272 4.363255 4.000000
3.334499 -10.320831 4.390658 8.000000
2.489748 -7.868700 4.352115 6.000000
3.838408 -11.955691 4.367878 6.000000
2.541359 -8.073977 3.934747 5.000000
3.799992 -11.962004 4.365924 14.000000
2.462152 -7.865312 4.346083 5.000000
2.438271 -7.873672 4.346550 10.000000
2.409430 -7.865870 4.338196 8.000000
2.480002 -8.051240 3.916308 9.000000
3.725117 -11.980577 4.364302 10.000000
2.385799 -7.874918 4.339129 6.000000
2.085732 -7.006129 4.342003 7.000000
3.648782 -11.994161 4.361047 12.000000
2.397232 -8.045006 3.902485 5.000000
2.063252 -7.009188 4.339972 8.000000
2.330635 -7.866477 4.326599 7.000000
3.606247 -11.986290 4.354193 12.000000
2.305741 -7.871038 4.325210 8.000000
2.041256 -7.013829 4.338959 11.000000
3.561097 -11.969213 4.344072 12.000000
2.281828 -7.878923 4.325678 11.000000
2.023777 -7.034122 4.347607 9.000000
2.341978 -8.039512 3.892850 4.000000
3.047757 -10.407151 4.389957 7.000000
2.258619 -7.889289 4.327538 13.000000
2.003364 -7.044436 4.350153 4.000000
2.314033 -8.035316 3.887403 7.000000
2.294094 -8.058965 3.895372 4.000000
1.981974 -7.051376 4.350664 15.000000
2.226923 -7.869762 4.313148 5.000000
2.264191 -8.047611 3.886572 8.000000
1.964942 -7.074013 4.360838 4.000000
2.209688 -7.901289 4.326617 12.000000
1.939123 -7.065060 4.351687 8.000000
2.181895 -7.895224 4.319655 11.000000
2.233650 -8.033525 3.876514 26.000000
2.208992 -8.040338 3.876517 36.000000
2.158128 -7.903587 4.320588 7.000000
1.912476 -7.052692 4.340502 11.000000
2.129252 -7.893067 4.311305 10.000000
2.185502 -8.051455 3.878617 28.000000
1.896848 -7.080979 4.354236 12.000000
1.875554 -7.088427 4.355257 12.000000
2.164083 -8.070396 3.884490 23.000000
2.107079 -7.907262 4.315486 10.000000
2.078523 -7.897414 4.306668 7.000000
1.849440 -7.077485 4.345088 5.000000
3.758938 -7.454732 4.188717 5.000000
2.053391 -7.900322 4.304814 6.000000
1.828577 -7.086458 4.347126 14.000000
2.096754 -8.117213 3.897496 8.000000
2.037954 -7.940896 4.323390 21.000000
2.764655 -10.640277 4.450098 4.000000
1.788631 -7.111734 4.355776 9.000000
1.993990 -7.869844 4.281604 7.000000
3.537620 -7.076719 4.485262 4.000000
3.737773 -7.527359 4.216394 8.000000
1.767218 -7.118857 4.356796 10.000000
1.976501 -7.902555 4.296001 9.000000
3.533290 -7.122662 4.507367 8.000000
2.617524 -10.469065 4.368741 6.000000
1.945874 -7.882785 4.282075 8.000000
2.011436 -8.093870 3.877383 5.000000
3.513341 -7.137374 4.509826 6.000000
1.742497 -7.112535 4.349680 10.000000
1.921470 -7.887856 4.281613 4.000000
1.720059 -7.115335 4.348156 8.000000
1.698220 -7.120576 4.348159 13.000000
1.888353 -7.856683 4.261650 7.000000
1.672615 -7.109826 4.338500 13.000000
1.873236 -7.900353 4.282084 10.000000
1.646703 -7.097309 4.327824 12.000000
1.899668 -8.065800 3.852660 5.000000
1.849190 -7.906923 4.282552 15.000000
3.396637 -7.119387 4.472025 5.000000
2.476221 -10.447129 4.346736 5.000000
1.821735 -7.898750 4.275126 4.000000
1.622421 -7.091414 4.321215 16.000000
3.344627 -7.065979 4.432247 4.000000
3.335135 -7.102232 4.448458 4.000000
1.598760 -7.087957 4.316132 12.000000
1.800243 -7.916389 4.281629 8.000000
3.664108 -7.857741 4.348967 4.000000
2.080113 -9.210227 4.386373 4.000000
1.776722 -7.925330 4.283489 6.000000
1.573639 -7.077698 4.306981 16.000000
3.630362 -7.911799 4.366380 7.000000
1.549887 -7.073238 4.301390 14.000000
1.756032 -7.947172 4.292315 5.000000
3.608292 -7.927786 4.369061 5.000000
1.731452 -7.951653 4.291853 7.000000
1.526904 -7.072067 4.297832 8.000000
3.588365 -7.948606 4.374421 13.000000
1.708906 -7.965585 4.296499 11.000000
1.503585 -7.069137 4.293257 12.000000
2.002164 -9.260919 4.401476 5.000000
1.482949 -7.078770 4.296311 13.000000
1.969199 -9.245706 4.391418 4.000000
3.567249 -7.966927 4.378441 10.000000
1.682260 -7.960391 4.290930 11.000000
2.171694 -10.126884 4.194098 6.000000
1.658732 -7.969847 4.293255 10.000000
1.943248 -9.263251 4.396872 4.000000
1.458612 -7.070635 4.288686 18.000000
3.543151 -7.978649 4.378891 7.000000
2.150014 -10.177972 4.212392 4.000000
1.633025 -7.968823 4.290008 11.000000
3.520817 -7.994394 4.381573 5.000000
1.916840 -9.278947 4.401486 7.000000
1.426618 -7.024448 4.258175 12.000000
3.491979 -7.995313 4.376221 15.000000
1.608744 -7.974662 4.290474 7.000000
1.889449 -9.290120 4.404005 11.000000
1.400498 -7.005994 4.244447 10.000000
3.470629 -8.013378 4.380241 16.000000
1.860046 -9.291419 4.401912 8.000000
1.583233 -7.974345 4.287691 16.000000
3.441442 -8.013294 4.374444 16.000000
1.834867 -9.314004 4.409882 8.000000
1.560120 -7.986116 4.291409 6.000000
3.413338 -8.015576 4.369985 17.000000
1.806109 -9.318696 4.409466 12.000000
1.532766 -7.976078 4.283518 7.000000
1.778020 -9.326866 4.410727 11.000000
1.506312 -7.970298 4.277948 12.000000
3.398463 -8.049097 4.382483 3.000000
2.006956 -10.448126 4.307597 11.000000
1.478450 -7.956594 4.268200 10.000000
1.974030 -10.449674 4.305735 6.000000
3.356841 -8.019026 4.360620 9.000000
1.748727 -9.328706 4.409052 8.000000
1.723556 -9.352774 4.417861 7.000000
1.448457 -7.930598 4.251951 5.000000
1.947216 -10.483953 4.317310 10.000000
3.321601 -8.003655 4.346789 11.000000
2.980769 -7.127921 4.380730 4.000000
1.924545 -10.541896 4.338590 7.000000
2.955887 -7.129786 4.376313 5.000000
1.421926 -7.922799 4.245453 4.000000
1.692424 -9.344615 4.411574 11.000000
3.290568 -7.998078 4.338314 7.000000
1.884488 -10.504830 4.321050 5.000000
3.259938 -7.993216 4.330284 7.000000
1.662472 -9.342610 4.408224 11.000000
1.392993 -7.900956 4.231525 7.000000
2.927054 -7.121895 4.366002 5.000000
1.632236 -9.338721 4.404035 7.000000
1.358007 -7.843232 4.198560 7.000000
3.232384 -7.995708 4.326272 15.000000
3.202518 -7.992291 4.319135 12.000000
3.173363 -7.990430 4.312890 12.000000
1.793787 -10.557393 4.335618 8.000000
3.806771 -9.652113 4.562519 6.000000
1.577317 -9.362881 4.410748 9.000000
2.825960 -7.123253 4.345387 3.000000
3.144578 -7.989298 4.307092 9.000000
1.255111 -7.668356 4.099198 6.000000
3.768144 -9.640698 4.551707 7.000000
1.754364 -10.520751 4.318451 7.000000
1.547250 -9.359612 4.406978 13.000000
2.807911 -7.141618 4.351284 6.000000
1.237621 -7.709770 4.119167 8.000000
3.116154 -7.988899 4.301740 14.000000
1.723876 -10.537067 4.322933 7.000000
1.214237 -7.715278 4.120098 4.000000
3.686288 -9.604600 4.524074 6.000000
3.088406 -7.990071 4.297281 9.000000
1.189749 -7.713714 4.117314 12.000000
3.657779 -9.618431 4.525280 8.000000
1.461458 -9.376141 4.408245 8.000000
1.666834 -10.596014 4.342724 5.000000
3.060681 -7.991147 4.292821 15.000000
2.770614 -7.175777 4.361603 5.000000
3.905155 -10.421126 4.240267 9.000000
1.168593 -7.733963 4.126139 17.000000
1.627244 -10.555232 4.324063 9.000000
3.032027 -7.989618 4.287022 13.000000
2.768164 -7.235507 4.392547 10.000000
1.433782 -9.387758 4.411602 8.000000
1.430734 -9.579206 5.745231 9.000000
1.400963 -9.580992 5.743709 16.000000
3.004983 -7.992178 4.283456 7.000000
2.741327 -7.231743 4.385183 5.000000
1.399729 -9.357094 4.395254 12.000000
1.598735 -10.585857 4.334518 11.000000
1.151089 -7.779562 4.148430 13.000000
1.369974 -9.574162 5.737101 24.000000
2.977641 -7.993808 4.279443 13.000000
2.728300 -7.264586 4.399920 8.000000
1.067781 -7.567524 5.082213 8.000000
1.372332 -9.370325 4.399449 17.000000
1.125817 -7.773414 4.143325 6.000000
1.338161 -9.336744 4.381843 13.000000
3.790528 -10.405646 4.219745 10.000000
1.340832 -9.580022 5.738121 10.000000
3.490360 -9.528348 4.462804 7.000000
1.102584 -7.781214 4.145648 9.000000
1.536809 -10.616580 4.343111 8.000000
1.023110 -7.587152 5.091048 6.000000
3.735122 -10.352116 4.193550 4.000000
2.680664 -7.273011 4.395015 9.000000
1.045934 -7.645933 4.582681 12.000000
1.080166 -7.795085 4.151223 6.000000
2.921478 -7.992589 4.269184 12.000000
1.309383 -9.339906 4.381426 11.000000
2.896638 -8.000670 4.268741 7.000000
1.054579 -7.786074 4.144724 9.000000
1.021785 -7.643983 4.579632 18.000000
3.709003 -10.379378 4.199926 13.000000
1.463611 -10.567913 4.319600 10.000000
0.999936 -7.591080 5.091602 12.000000
1.278253 -9.325888 4.373044 16.000000
2.663109 -7.294293 4.402876 5.000000
3.422542 -9.523708 4.450793 8.000000
3.362008 -9.446099 4.409937 10.000000
2.637759 -7.294233 4.397968 9.000000
1.436787 -10.613721 4.336401 5.000000
3.672466 -10.377480 4.194621 8.000000
1.029406 -7.779613 4.139619 11.000000
2.866648 -7.994351 4.260712 11.000000
0.997770 -7.642811 4.577092 11.000000
1.251927 -9.346860 4.381013 13.000000
0.954167 -7.603687 5.096021 8.000000
0.973771 -7.641563 4.574551 21.000000
3.636903 -10.378102 4.190376 17.000000
1.399591 -10.583129 4.322219 5.000000
1.220651 -9.330851 4.371792 15.000000
2.617419 -7.308031 4.401408 12.000000
2.842107 -8.003106 4.260715 11.000000
1.007350 -7.796785 4.147050 11.000000
0.981649 -7.785779 4.139623 8.000000
2.608939 -7.355439 4.424985 8.000000
0.950214 -7.643659 4.574044 15.000000
2.815761 -8.006720 4.258040 11.000000
1.187067 -9.295827 4.353766 18.000000
3.600452 -10.375955 4.185069 16.000000
1.366996 -10.586451 4.321849 8.000000
0.957649 -7.787873 4.139161 9.000000
0.926136 -7.641408 4.570995 14.000000
2.787656 -8.005176 4.252687 11.000000
3.573458 -10.401103 4.190738 6.000000
2.568203 -7.311619 4.394047 8.000000
0.906106 -7.597803 5.088299 8.000000
1.162024 -9.327351 4.366766 9.000000
1.331143 -10.563901 4.311027 11.000000
0.884044 -7.611312 5.095476 8.000000
1.133731 -9.333573 4.368027 12.000000
0.933645 -7.789893 4.138699 7.000000
2.537759 -7.296420 4.380298 6.000000
0.901776 -7.636515 4.566420 14.000000
1.299293 -10.572536 4.312897 9.000000
2.758713 -8.000996 4.245996 13.000000
3.258867 -9.524786 4.427578 6.000000
3.520172 -10.349143 4.165604 9.000000
1.103594 -9.324384 4.362159 18.000000
0.909740 -7.792719 4.138700 10.000000
0.859655 -7.604872 5.089407 6.000000
0.878835 -7.643521 4.568964 10.000000
3.488405 -10.359892 4.165608 13.000000
1.268286 -10.588445 4.317752 8.000000
2.734441 -8.010265 4.246446 5.000000
2.508373 -7.357205 4.407315 9.000000
0.885326 -7.791071 4.136381 7.000000
0.854900 -7.641901 4.566423 14.000000
1.072379 -9.305177 4.351680 15.000000
3.452764 -10.359007 4.161009 15.000000
2.704703 -8.003352 4.238416 4.000000
0.836500 -7.609129 5.090512 6.000000
1.236870 -10.601500 4.321487 15.000000
1.048384 -9.349020 4.370549 11.000000
0.813239 -7.612487 5.091066 10.000000
1.200776 -10.573901 4.308799 11.000000
3.409552 -10.334907 4.147205 19.000000
0.831636 -7.646197 4.567442 17.000000
0.861906 -7.798151 4.138704 8.000000
2.673899 -7.992937 4.228600 18.000000
3.167721 -9.643276 4.464046 5.000000
0.837976 -7.800756 4.138707 11.000000
0.807720 -7.644430 4.564902 10.000000
1.168228 -10.576612 4.308429 8.000000
1.019105 -9.346775 4.368037 14.000000
2.466487 -7.382370 4.413215 7.000000
0.790482 -7.620750 5.094932 9.000000
2.648802 -7.999401 4.227711 12.000000
3.374929 -10.336424 4.143668 15.000000
0.988891 -9.335410 4.361331 15.000000
0.813763 -7.800645 4.137316 13.000000
0.766344 -7.615670 5.089966 10.000000
1.133988 -10.563540 4.301713 9.000000
2.460207 -7.439531 4.442686 5.000000
3.343201 -10.346727 4.143672 14.000000
0.784526 -7.649439 4.566430 11.000000
2.625638 -8.011741 4.229945 14.000000
0.958106 -9.317628 4.351690 23.000000
2.591397 -7.989957 4.214328 20.000000
2.429255 -7.422201 4.427954 6.000000
0.760455 -7.645811 4.562871 12.000000
0.742650 -7.614664 5.087760 8.000000
3.309166 -10.349807 4.140843 14.000000
1.104078 -10.590959 4.311420 12.000000
0.790362 -7.808391 4.140103 12.000000
2.393075 -7.388175 4.403399 5.000000
0.737572 -7.654105 4.566433 12.000000
1.071953 -10.597985 4.312916 13.000000
3.279932 -10.367934 4.144033 14.000000
2.566598 -7.997015 4.213884 15.000000
0.932943 -9.354850 4.367624 19.000000
0.765362 -7.800200 4.134532 20.000000
0.719440 -7.618565 5.088866 8.000000
2.383665 -7.436963 4.427959 11.000000
3.233879 -10.332421 4.125981 12.000000
0.740084 -7.788403 4.127105 22.000000
2.543132 -8.008262 4.215672 7.000000
0.697202 -7.633190 5.097147 10.000000
1.036804 -10.574448 4.302094 19.000000
0.901177 -9.326038 4.352952 21.000000
0.713845 -7.653758 4.564909 12.000000
2.512659 -7.997239 4.205857 15.000000
3.194429 -10.317273 4.116071 21.000000
2.998738 -9.624229 4.433619 10.000000
2.355317 -7.426798 4.417648 6.000000
0.716591 -7.795044 4.129429 19.000000
1.004269 -10.576653 4.301724 15.000000
0.690359 -7.655910 4.564911 18.000000
0.673339 -7.630307 5.093837 12.000000
0.871459 -9.317006 4.347505 21.000000
0.649286 -7.624857 5.088871 16.000000
3.157290 -10.309137 4.108993 16.000000
0.665743 -7.645124 4.557285 8.000000
2.959764 -9.602732 4.419600 3.000000
0.691336 -7.782207 4.121537 18.000000
2.324971 -7.409880 4.403407 10.000000
2.486255 -7.998925 4.202735 7.000000
0.843361 -9.325060 4.350022 25.000000
2.459339 -7.998814 4.198721 9.000000
3.123481 -10.311611 4.106164 11.000000
0.666926 -7.778113 4.118288 27.000000
2.927620 -9.603000 4.415597 5.000000
0.814193 -9.321270 4.347089 28.000000
2.308153 -7.436114 4.414706 6.000000
0.642934 -7.654850 4.561863 21.000000
0.626914 -7.639278 5.097151 5.000000
0.936887 -10.554890 4.290530 26.000000
0.901328 -10.520740 4.275602 18.000000
0.785515 -9.322818 4.346673 17.000000
2.905539 -9.636500 4.426818 8.000000
0.602222 -7.625368 5.086668 6.000000
0.618749 -7.648203 4.556780 16.000000
3.079769 -10.280824 4.090235 16.000000
2.433486 -8.002038 4.196493 12.000000
0.642401 -7.772178 4.114111 17.000000
0.618482 -7.773227 4.113648 9.000000
0.595147 -7.648346 4.555765 11.000000
2.268796 -7.470973 4.426990 4.000000
2.404293 -7.994036 4.188462 10.000000
0.757203 -9.328801 4.348352 17.000000
0.867746 -10.507736 4.269259 15.000000
0.578950 -7.628840 5.087773 10.000000
2.883803 -9.671712 4.438839 5.000000
3.040785 -10.265110 4.080325 17.000000
0.571292 -7.644983 4.552714 17.000000
2.378227 -7.996225 4.185787 19.000000
0.593818 -7.764490 4.108078 18.000000
0.555237 -7.626420 5.085015 13.000000
3.004027 -10.256437 4.073247 12.000000
0.837271 -10.532543 4.278220 10.000000
0.726596 -9.305736 4.336615 24.000000
0.532185 -7.633078 5.088328 19.000000
2.351415 -7.995754 4.181773 16.000000
0.547834 -7.646698 4.552716 15.000000
0.801909 -10.495284 4.262171 17.000000
0.698178 -9.309730 4.337455 24.000000
0.570188 -7.768923 4.109472 10.000000
2.975403 -10.275486 4.077145 7.000000
0.507651 -7.618031 5.077292 6.000000
2.324628 -7.995193 4.177759 15.000000
0.524016 -7.643187 4.549667 12.000000
0.771133 -10.517122 4.270012 15.000000
0.667915 -9.288282 4.326557 28.000000
2.941551 -10.276470 4.073963 13.000000
0.546287 -7.769751 4.109010 12.000000
2.192342 -7.465619 4.411771 3.000000
2.297866 -7.994544 4.173745 11.000000
0.741597 -10.558305 4.285693 16.000000
0.641164 -9.315646 4.338298 23.000000
2.900094 -10.250344 4.060158 22.000000
0.484435 -7.622047 5.078949 12.000000
0.522089 -7.766086 4.106226 18.000000
0.500394 -7.642179 4.548143 16.000000
2.165306 -7.458084 4.403424 3.000000
0.499396 -7.785326 4.115515 10.000000
2.872152 -10.271802 4.065117 10.000000
0.477052 -7.645395 4.549161 14.000000
0.704779 -10.494809 4.259192 20.000000
0.612043 -9.309415 4.334527 21.000000
0.460188 -7.609346 5.069568 7.000000
2.271863 -7.996388 4.171070 12.000000
0.674004 -10.519140 4.268153 23.000000
2.246835 -8.001595 4.170179 8.000000
0.437175 -7.616548 5.073432 9.000000
0.583137 -9.305811 4.332013 31.000000
0.453439 -7.644243 4.547637 16.000000
2.840625 -10.280563 4.065121 17.000000
0.474912 -7.777096 4.110408 10.000000
0.430032 -7.646456 4.548147 22.000000
0.450947 -7.776747 4.109481 13.000000
0.413078 -7.604528 5.064604 9.000000
2.811530 -10.298251 4.068665 17.000000
2.634214 -9.581185 4.370759 6.000000
0.642803 -10.538751 4.275248 23.000000
0.553718 -9.293055 4.325307 33.000000
2.223469 -8.012761 4.172414 11.000000
0.609338 -10.521222 4.267412 27.000000
2.637898 -9.711255 4.426045 5.000000
0.526231 -9.312836 4.333694 26.000000
2.768979 -10.266190 4.052735 18.000000
0.389830 -7.607424 5.065710 7.000000
0.427036 -7.777207 4.109018 11.000000
2.197459 -8.014363 4.169738 8.000000
0.407625 -7.667512 4.559846 5.000000
0.497462 -9.310779 4.332019 27.000000
0.366205 -7.602752 5.061848 6.000000
0.577616 -10.533230 4.271519 14.000000
0.478734 -9.551129 5.673094 37.000000
2.170057 -8.010699 4.164385 15.000000
0.403863 -7.791746 4.115984 20.000000
2.739392 -10.281864 4.055571 22.000000
0.378700 -7.767293 4.102520 9.000000
0.545538 -10.539583 4.273388 19.000000
0.342953 -7.605504 5.062953 8.000000
2.145007 -8.015588 4.163495 15.000000
2.714250 -10.314641 4.065133 17.000000
0.449712 -9.558572 5.676656 21.000000
0.466924 -9.273271 4.313992 41.000000
2.121318 -8.025591 4.165283 14.000000
0.421104 -9.576247 5.686321 18.000000
2.678834 -10.308433 4.059471 14.000000
0.355233 -7.776380 4.106701 15.000000
0.319651 -7.607351 5.063506 7.000000
0.439504 -9.296422 4.324057 28.000000
0.512973 -10.536572 4.271523 15.000000
0.331373 -7.777431 4.106702 12.000000
0.296179 -7.604961 5.061300 12.000000
0.411060 -9.299539 4.324897 34.000000
2.642786 -10.299387 4.052748 23.000000
0.312403 -7.645261 4.544086 11.000000
2.093527 -8.019935 4.159037 16.000000
0.480094 -10.526047 4.266674 19.000000
0.272724 -7.602499 5.059093 11.000000
1.947607 -7.472851 4.378887 5.000000
2.610946 -10.306539 4.052396 17.000000
0.382901 -9.309825 4.329092 31.000000
0.288651 -7.638438 4.539510 10.000000
2.066460 -8.016785 4.154130 9.000000
0.448548 -10.545079 4.273768 26.000000
0.307123 -7.768675 4.101596 19.000000
2.583843 -10.332646 4.059480 13.000000
2.040752 -8.018748 4.151901 19.000000
0.265094 -7.635844 4.537477 11.000000
0.354440 -9.313676 4.330351 24.000000
0.416157 -10.545477 4.273396 11.000000
0.249425 -7.604131 5.059647 9.000000
0.283124 -7.765154 4.099275 20.000000
0.325896 -9.315625 4.330772 28.000000
0.383632 -10.542068 4.271532 23.000000
2.544747 -10.310556 4.047800 19.000000
1.904070 -7.493945 4.384294 5.000000
0.303141 -9.567778 5.678699 18.000000
2.013095 -8.012817 4.145655 10.000000
0.259447 -7.770411 4.101598 12.000000
0.203073 -7.617185 5.067377 8.000000
0.235471 -7.766742 4.099278 15.000000
1.986567 -8.011136 4.141641 13.000000
2.510893 -10.309225 4.044262 18.000000
0.273364 -9.554029 5.670056 22.000000
0.297488 -9.322024 4.333290 27.000000
0.349923 -10.502397 4.255110 33.000000
1.880223 -7.496369 4.382331 7.000000
0.179880 -7.625274 5.072344 6.000000
1.960705 -8.011975 4.138965 15.000000
0.318488 -10.529383 4.265563 21.000000
2.474453 -10.296871 4.036476 21.000000
1.851367 -7.478422 4.368581 6.000000
0.243917 -9.549657 5.667006 18.000000
0.268413 -9.306557 4.325744 27.000000
0.211422 -7.759459 4.095100 15.000000
1.831508 -7.496759 4.375950 4.000000
0.187766 -7.766266 4.098352 14.000000
0.195499 -9.509167 6.319118 7.000000
0.284815 -10.480230 4.245408 35.000000
0.240047 -9.314595 4.329100 19.000000
1.933600 -8.007511 4.133612 15.000000
2.443712 -10.308053 4.037894 22.000000
0.163805 -7.760606 4.095103 18.000000
0.254324 -10.549685 4.273033 14.000000
1.907161 -8.005568 4.129597 14.000000
2.407399 -10.295464 4.030108 15.000000
0.210722 -9.282612 4.314008 42.000000
0.133159 -7.630400 5.075107 14.000000
2.218705 -9.412084 4.254216 5.000000
0.140059 -7.764613 4.096962 10.000000
0.181990 -9.270505 4.308140 35.000000
2.374333 -10.296419 4.027632 21.000000
0.221720 -10.539284 4.268556 24.000000
1.881161 -8.005280 4.126475 14.000000
0.109760 -7.631604 5.075660 15.000000
0.153638 -9.276465 4.310658 25.000000
1.854575 -8.002293 4.122015 13.000000
0.116021 -7.750835 4.089533 11.000000
0.086316 -7.629401 5.074006 12.000000
1.746355 -7.444591 4.336173 10.000000
2.340455 -10.293620 4.023740 18.000000
0.188361 -10.483331 4.245787 35.000000
0.125275 -9.284154 4.314013 22.000000
0.157326 -10.558995 4.276025 25.000000
2.310292 -10.307139 4.026221 16.000000
0.092305 -7.756467 4.092320 10.000000
1.720765 -7.438029 4.329299 7.000000
1.829219 -8.004453 4.120231 11.000000
1.696583 -7.437326 4.325863 10.000000
0.039476 -7.625615 5.071248 8.000000
0.124353 -10.511189 4.256616 18.000000
1.803475 -8.004787 4.117555 15.000000
2.278256 -10.312350 4.025516 15.000000
0.096570 -9.263613 4.304371 34.000000
0.016051 -7.613190 5.062971 8.000000
1.677379 -7.458643 4.335196 10.000000
0.068026 -9.247522 4.296826 34.000000
0.092211 -10.523578 4.261471 31.000000
1.777553 -8.004165 4.114433 13.000000
2.248792 -10.329343 4.029414 18.000000
0.059935 -10.525665 4.262219 27.000000
2.217091 -10.336191 4.029416 23.000000
0.039650 -9.246778 4.296408 14.000000
1.666708 -7.519038 4.367123 4.000000
-0.007305 -7.609866 5.060764 13.000000
1.751461 -8.002584 4.110865 19.000000
0.011279 -9.245947 4.295990 19.000000
2.103186 -9.867110 4.437311 5.000000
0.027586 -10.505389 4.254008 20.000000
1.726335 -8.005294 4.109528 15.000000
2.185369 -10.342943 4.029418 11.000000
1.639367 -7.504539 4.355828 6.000000
-0.030656 -7.610640 5.061316 8.000000
2.063510 -9.828674 4.417283 11.000000
1.613958 -7.498459 4.349445 8.000000
1.700654 -8.005298 4.106852 16.000000
2.153626 -10.349597 4.029421 19.000000
-0.017077 -9.239581 4.293056 21.000000
-0.004641 -10.492435 4.248784 20.000000
1.672612 -7.993832 4.098375 12.000000
2.125798 -10.375395 4.036860 9.000000
-0.036819 -10.488659 4.247293 18.000000
-0.077281 -7.602800 5.056352 8.000000
1.591665 -7.506782 4.351412 12.000000
-0.045377 -9.229498 4.288447 15.000000
2.046860 -9.900464 4.446530 7.000000
2.092849 -10.376366 4.034738 16.000000
2.011186 -9.880656 4.434915 9.000000
1.566673 -7.502248 4.346010 14.000000
-0.100531 -7.596689 5.052490 11.000000
-0.073636 -9.222051 4.285094 17.000000
-0.068980 -10.485712 4.246174 17.000000
1.649879 -8.007689 4.102839 7.000000
-0.101486 -10.520700 4.260361 14.000000
-0.123772 -7.592175 5.049731 7.000000
1.543298 -7.505311 4.345030 13.000000
1.982300 -9.893966 4.438122 11.000000
2.061004 -10.382736 4.034739 13.000000
1.624239 -8.007449 4.100163 9.000000
-0.101890 -9.218149 4.283418 17.000000
-0.130260 -9.224146 4.286354 19.000000
1.597043 -7.999228 4.093471 9.000000
-0.133249 -10.479522 4.243937 20.000000
-0.146905 -7.583420 5.044213 5.000000
2.026636 -10.376157 4.029785 16.000000
1.525089 -7.533916 4.358784 16.000000
1.571461 -7.998819 4.090795 11.000000
-0.158466 -9.218256 4.283840 10.000000
1.995849 -10.387836 4.031912 12.000000
-0.170505 -7.597938 5.054149 6.000000
1.913545 -9.864559 4.419699 7.000000
1.498234 -7.519762 4.347980 16.000000
-0.165835 -10.506890 4.255138 26.000000
-0.186419 -9.201386 4.276294 11.000000
1.962237 -10.384717 4.028374 20.000000
1.477996 -7.538855 4.356331 18.000000
1.547252 -8.005359 4.091690 11.000000
-0.194005 -7.604880 5.059116 11.000000
-0.196749 -10.435837 4.226770 15.000000
1.855677 -9.890521 4.426113 7.000000
1.931901 -10.398963 4.031563 10.000000
1.520850 -8.000395 4.086782 11.000000
1.446307 -7.498870 4.330793 14.000000
-0.214901 -9.211661 4.281326 14.000000
-0.229777 -10.481558 4.245435 26.000000
-0.217550 -7.611750 5.064085 9.000000
1.493019 -7.987427 4.077857 20.000000
-0.240903 -7.611046 5.064085 6.000000
-0.259880 -10.398260 4.212214 17.000000
-0.243543 -9.225478 4.288035 7.000000
1.822670 -9.881747 4.419705 10.000000
1.423617 -7.504983 4.331777 11.000000
1.900491 -10.407599 4.032627 17.000000
1.785008 -9.846718 4.401680 10.000000
1.398037 -7.495611 4.323920 13.000000
1.467861 -7.988447 4.076074 8.000000
-0.271340 -9.207444 4.280071 8.000000
1.867069 -10.405094 4.029443 17.000000
-0.264714 -7.623603 5.072917 10.000000
-0.290149 -10.338989 4.188699 28.000000
-0.321177 -10.315795 4.179741 30.000000
1.289385 -7.031147 4.055262 7.000000
-0.256362 -7.509067 3.964638 5.000000
1.443504 -7.993792 4.076522 12.000000
1.763284 -9.899959 4.422915 5.000000
-0.298794 -9.182067 4.268752 5.000000
1.836433 -10.418139 4.032278 16.000000
-0.288353 -7.629420 5.077333 9.000000
1.414608 -7.973507 4.064027 18.000000
1.277967 -7.091654 4.087679 8.000000
-0.312302 -7.641830 5.086164 8.000000
1.801278 -10.405293 4.025198 17.000000
-0.351466 -10.274892 4.163691 33.000000
1.722507 -9.845748 4.396476 9.000000
1.767001 -10.396937 4.019890 19.000000
1.386922 -7.959293 4.054656 18.000000
-0.384056 -10.302503 4.175263 23.000000
1.242585 -7.018335 4.043477 11.000000
1.690899 -9.842857 4.392872 10.000000
-0.414282 -10.266976 4.161454 31.000000
1.664492 -9.870585 4.402890 10.000000
1.735249 -10.403231 4.020246 15.000000
1.362195 -7.961745 4.053765 13.000000
-0.444776 -10.242484 4.152122 46.000000
-0.360023 -8.026776 3.736701 6.000000
1.708597 -10.440808 4.032641 21.000000
1.335546 -7.952645 4.047073 13.000000
1.630472 -9.853044 4.392877 7.000000
-0.372086 -7.515744 3.970679 4.000000
1.308965 -7.943459 4.040379 5.000000
1.660591 -10.346265 3.994403 27.000000
-0.475769 -10.231804 4.148390 42.000000
1.600235 -9.857998 4.392879 9.000000
1.628551 -10.349463 3.993696 27.000000
1.187333 -7.222166 4.151535 5.000000
1.572711 -9.880053 4.400492 17.000000
1.285300 -7.951853 4.042612 12.000000
-0.507020 -10.227515 4.147271 39.000000
1.543660 -9.892979 4.404099 15.000000
1.592242 -10.324829 3.982368 31.000000
1.260478 -7.953105 4.041275 15.000000
-0.537958 -10.217572 4.143913 40.000000
-0.458034 -8.013591 3.732931 4.000000
1.233745 -7.941899 4.033689 13.000000
-0.568942 -10.209388 4.141302 39.000000
1.511368 -9.884985 4.398493 7.000000
1.566549 -10.369430 3.997596 22.000000
1.173289 -7.572831 4.345545 4.000000
-0.466416 -7.545082 3.988791 3.000000
1.537595 -10.393614 4.005033 15.000000
-0.502963 -7.680947 5.118733 4.000000
1.486580 -9.926728 4.414919 7.000000
1.210178 -7.950954 4.036368 19.000000
-0.600479 -10.211298 4.142795 44.000000
-0.506854 -8.005192 3.730416 5.000000
1.502091 -10.373290 3.995475 18.000000
-0.631633 -10.206629 4.141676 47.000000
1.187618 -7.967021 4.042618 13.000000
1.297415 -7.730976 6.887939 3.000000
1.453733 -9.914921 4.407710 13.000000
-0.663004 -10.205567 4.142050 45.000000
1.138664 -7.660021 4.391225 11.000000
1.422917 -9.916612 4.406510 10.000000
1.465550 -10.344511 3.982730 29.000000
-0.512944 -7.545610 3.990650 5.000000
1.163041 -7.969740 4.042173 20.000000
1.264290 -7.827921 6.966995 3.000000
1.419613 -9.562955 6.146794 22.000000
-0.557283 -8.020947 3.739223 8.000000
1.138962 -7.975927 4.043513 14.000000
1.392233 -9.919114 4.405711 20.000000
1.438797 -10.385088 3.996541 22.000000
-0.693432 -10.190525 4.136826 47.000000
1.113500 -7.972291 4.039944 11.000000
1.356827 -9.887026 4.389688 16.000000
-0.725941 -10.205932 4.143919 59.000000
1.407429 -10.393158 3.997959 21.000000
-0.582086 -8.021916 3.740481 6.000000
1.090906 -7.661686 4.388280 7.000000
1.390508 -9.568935 6.147865 21.000000
-0.606763 -8.020996 3.740900 6.000000
1.360669 -9.569809 6.145727 24.000000
1.382628 -10.451203 4.018497 14.000000
-0.757524 -10.207356 4.145412 60.000000
1.392326 -9.539788 6.843930 12.000000
1.324545 -9.876609 4.383279 13.000000
1.213127 -7.815454 6.949210 6.000000
1.088673 -7.973008 4.038606 16.000000
1.345303 -10.414582 4.002919 23.000000
1.362590 -9.540779 6.841622 14.000000
1.191170 -7.832526 6.961070 3.000000
1.062675 -7.964777 4.032805 11.000000
1.293763 -9.876991 4.381679 15.000000
-0.790050 -10.220707 4.151760 39.000000
1.054041 -7.573071 4.866453 8.000000
-0.611306 -7.611134 4.028729 4.000000
1.044106 -7.669959 4.389265 11.000000
-0.818880 -10.186793 4.139069 52.000000
1.261369 -9.864552 4.374470 13.000000
1.168236 -7.843583 6.967659 5.000000
1.332299 -9.537636 6.836426 7.000000
1.316026 -10.440001 4.011065 16.000000
1.031821 -7.583802 4.871270 8.000000
1.020798 -7.674851 4.390249 3.000000
1.039270 -7.975986 4.036824 12.000000
1.303030 -9.541677 6.836427 10.000000
1.277394 -10.390147 3.990530 25.000000
0.995459 -7.664124 4.382391 5.000000
1.013557 -7.969369 4.031916 23.000000
1.141895 -7.831493 6.953825 5.000000
-0.680562 -8.015069 3.740902 5.000000
1.008105 -7.583580 4.869131 13.000000
-0.850669 -10.190703 4.141682 56.000000
1.234715 -9.897470 4.387290 6.000000
1.248837 -10.421875 4.001154 19.000000
-0.883128 -10.201909 4.147282 58.000000
1.199053 -9.857551 4.368062 12.000000
0.985049 -7.588313 4.870201 15.000000
0.989431 -7.975104 4.033255 8.000000
1.274178 -9.548864 6.838738 8.000000
0.965173 -7.979878 4.034149 26.000000
1.244876 -9.552727 6.838740 15.000000
-0.729730 -8.010740 3.740903 7.000000
1.210267 -10.368989 3.979557 31.000000
-0.916243 -10.219479 4.155495 48.000000
0.960918 -7.584591 4.865922 16.000000
1.169771 -9.869370 4.371670 14.000000
-0.945881 -10.198143 4.148030 52.000000
-0.754813 -8.013885 3.743419 9.000000
1.141998 -9.894756 4.381286 14.000000
1.184971 -10.430267 4.001512 17.000000
1.215356 -9.554880 6.837587 13.000000
0.921764 -7.647010 4.367660 12.000000
0.939539 -7.973023 4.029242 11.000000
0.914768 -7.973199 4.027903 18.000000
1.152454 -10.429205 3.999743 15.000000
1.184933 -9.549649 6.831236 21.000000
-0.776940 -7.986230 3.731680 7.000000
-0.979374 -10.218280 4.157364 46.000000
1.106746 -9.854505 4.362058 12.000000
-0.753390 -7.619738 4.039876 6.000000
0.913354 -7.581954 4.860574 9.000000
0.897590 -7.643744 4.364223 8.000000
0.889304 -7.578006 4.856295 24.000000
1.115676 -10.388054 3.982748 28.000000
1.156604 -9.561343 6.837012 8.000000
0.890598 -7.978636 4.029243 18.000000
0.875709 -7.660309 4.372082 10.000000
1.076309 -9.856031 4.361258 18.000000
0.866980 -7.989337 4.033261 11.000000
1.126312 -9.556736 6.831238 16.000000
0.849713 -7.640448 4.359313 5.000000
1.047991 -9.877509 4.369271 13.000000
0.865764 -7.578179 4.854691 15.000000
1.087569 -10.427706 3.996559 20.000000
1.016840 -9.872473 4.365668 16.000000
1.050790 -10.383535 3.978503 28.000000
0.826267 -7.643017 4.359314 5.000000
0.842138 -7.577438 4.852552 13.000000
1.096152 -9.552845 6.826043 25.000000
0.842464 -7.991958 4.033262 14.000000
0.818031 -7.995393 4.033709 15.000000
1.019656 -10.394156 3.981337 22.000000
1.066566 -9.553727 6.824311 22.000000
-0.876468 -7.990530 3.738390 6.000000
0.979746 -9.807163 4.335623 17.000000
0.818525 -7.576625 4.850412 16.000000
0.953607 -9.851163 4.353652 20.000000
0.989523 -10.415855 3.988419 20.000000
0.794924 -7.575738 4.848272 13.000000
1.037162 -9.556141 6.823734 16.000000
0.792179 -7.984506 4.027015 11.000000
0.778475 -7.639274 4.354404 4.000000
0.923209 -9.852217 4.352852 29.000000
1.006985 -9.551157 6.817961 19.000000
0.770656 -7.568054 4.841853 15.000000
0.754353 -7.634690 4.350476 4.000000
0.955944 -10.401145 3.981693 18.000000
0.767423 -7.984225 4.025678 22.000000
-0.952118 -8.000152 3.746776 9.000000
0.977594 -9.553388 6.817385 20.000000
0.742594 -7.982976 4.023894 11.000000
0.731915 -7.647373 4.356371 9.000000
0.747598 -7.572062 4.842925 19.000000
0.923946 -10.403096 3.981341 20.000000
0.882204 -7.912652 6.995340 5.000000
0.893143 -9.856826 4.353654 21.000000
0.716267 -7.964715 4.013629 13.000000
0.890912 -10.392835 3.976385 20.000000
0.724283 -7.573478 4.842391 11.000000
0.709567 -7.661725 4.363248 6.000000
0.860990 -9.837611 4.344041 22.000000
0.949081 -9.564465 6.823161 13.000000
0.859023 -10.395518 3.976386 21.000000
0.684205 -7.643041 4.351461 11.000000
0.918799 -9.557578 6.816231 13.000000
0.691212 -7.959741 4.010060 15.000000
0.831034 -9.842944 4.345243 21.000000
0.701353 -7.579029 4.844531 10.000000
0.661050 -7.648574 4.353426 7.000000
0.889922 -9.565228 6.819698 23.000000
0.826241 -10.386916 3.972138 20.000000
0.802827 -9.870105 4.356061 19.000000
0.667084 -7.965390 4.011846 19.000000
0.677573 -7.575253 4.840786 16.000000
0.794228 -10.387535 3.971431 25.000000
0.769912 -9.838720 4.341240 21.000000
0.860716 -9.569537 6.820854 12.000000
0.641929 -7.958477 4.007384 18.000000
0.637940 -7.654905 4.355883 5.000000
0.655123 -7.586553 4.846673 16.000000
0.616135 -7.942564 3.998459 19.000000
0.831071 -9.568877 6.818545 21.000000
0.763717 -10.408577 3.978514 18.000000
0.741293 -9.862050 4.350455 17.000000
0.631565 -7.585158 4.844533 15.000000
0.614036 -7.651616 4.352937 7.000000
0.608290 -7.587059 4.844534 15.000000
0.709985 -9.849655 4.344046 23.000000
0.730997 -10.399674 3.974266 14.000000
0.726237 -7.817415 6.898505 3.000000
0.590358 -7.650856 4.351464 6.000000
0.801099 -9.564059 6.813348 14.000000
0.592489 -7.954232 4.003368 13.000000
0.568715 -7.964938 4.007833 15.000000
0.585074 -7.589731 4.845070 24.000000
0.567265 -7.657843 4.354412 6.000000
0.771882 -9.568098 6.814505 12.000000
0.681017 -9.870068 4.352059 24.000000
0.699150 -10.402801 3.974621 19.000000
0.741769 -9.560652 6.807576 26.000000
0.652528 -9.899537 4.364079 14.000000
0.562465 -7.600757 4.850956 9.000000
0.543401 -7.654332 4.351466 5.000000
0.677608 -7.814225 6.891920 5.000000
0.544094 -7.963965 4.006495 20.000000
0.665150 -10.372229 3.962230 18.000000
0.711649 -9.552297 6.800068 14.000000
0.519329 -7.647271 4.346554 6.000000
0.538610 -7.594861 4.846142 15.000000
0.519716 -7.966489 4.006941 12.000000
0.622381 -9.905149 4.365683 14.000000
0.631005 -10.335945 3.947714 24.000000
0.597840 -10.312622 3.938154 22.000000
0.591501 -9.898780 4.362078 16.000000
0.681703 -9.545477 6.793716 10.000000
0.630183 -7.824982 6.897850 6.000000
0.515418 -7.598162 4.847212 9.000000
0.495753 -7.647089 4.345572 7.000000
0.495767 -7.976084 4.010959 17.000000
0.607209 -7.840379 6.909708 3.000000
0.492158 -7.600550 4.847748 9.000000
0.651806 -9.538563 6.787365 26.000000
0.561592 -9.908779 4.365684 13.000000
0.471555 -7.982033 4.013191 14.000000
0.568488 -10.356430 3.954089 18.000000
0.472289 -7.648572 4.345573 9.000000
0.622379 -9.538072 6.785634 15.000000
0.530362 -9.894900 4.358875 16.000000
0.584092 -7.854959 6.920908 5.000000
0.535032 -10.325434 3.941698 19.000000
0.446816 -7.978973 4.010961 18.000000
0.448518 -7.644766 4.342627 7.000000
0.468786 -7.601179 4.847214 10.000000
0.422241 -7.978518 4.010068 21.000000
0.424248 -7.631320 4.334278 6.000000
0.503035 -10.320486 3.939220 22.000000
0.445120 -7.596676 4.843469 13.000000
0.499407 -9.884583 4.353668 24.000000
0.592761 -9.534230 6.781591 17.000000
0.401600 -7.647373 4.342628 4.000000
0.470271 -10.297689 3.930015 19.000000
0.563076 -9.528668 6.776394 22.000000
0.536641 -7.869651 6.930791 4.000000
0.468949 -9.883322 4.352467 14.000000
0.397893 -7.982456 4.011408 16.000000
0.422042 -7.602223 4.846145 11.000000
0.373070 -7.976487 4.007838 20.000000
0.438400 -10.292542 3.927537 23.000000
0.512299 -7.868256 6.928157 6.000000
0.533974 -9.532795 6.778128 18.000000
0.438545 -9.882882 4.351666 13.000000
0.497245 -9.504320 6.051594 29.000000
0.377116 -7.627687 4.330841 9.000000
0.353234 -7.618364 4.324948 11.000000
0.407807 -10.319070 3.937099 11.000000
0.504340 -9.527049 6.772932 18.000000
0.408222 -9.884180 4.351668 17.000000
0.467960 -9.503269 6.049990 22.000000
0.348249 -7.969546 4.003822 15.000000
0.323976 -7.975047 4.006054 13.000000
0.329413 -7.608968 4.319055 11.000000
0.375103 -10.291298 3.926123 25.000000
0.474946 -9.525289 6.770622 23.000000
0.378899 -9.911937 4.363286 13.000000
0.438223 -9.492000 6.041966 18.000000
0.329435 -7.623706 4.856848 6.000000
0.345976 -9.840713 4.331638 28.000000
0.299176 -7.967060 4.001591 16.000000
0.343065 -10.278378 3.920813 16.000000
0.306515 -7.621257 4.325440 6.000000
0.445984 -9.532408 6.774665 16.000000
0.274579 -7.963467 3.999360 26.000000
0.311083 -10.264424 3.915148 26.000000
0.315638 -9.837147 4.329635 17.000000
0.418168 -7.921278 6.969662 5.000000
0.282622 -7.608232 4.317582 9.000000
0.416947 -9.538624 6.778131 16.000000
0.305810 -7.618770 4.853103 10.000000
0.282341 -7.617139 4.851499 4.000000
0.258987 -7.600357 4.312671 7.000000
0.287576 -9.912253 4.362087 12.000000
0.250146 -7.964271 3.999361 13.000000
0.307644 -7.546249 5.366658 9.000000
0.283652 -10.416780 3.972510 11.000000
0.235879 -7.608079 4.316601 4.000000
0.225735 -7.965894 3.999808 12.000000
0.284369 -7.543893 5.364348 9.000000
0.321647 -9.494967 6.040898 11.000000
0.369864 -7.930455 6.975593 4.000000
0.255809 -9.859962 4.338851 13.000000
0.248983 -10.303536 3.929313 20.000000
0.292412 -9.492532 6.038759 19.000000
0.217159 -10.293965 3.925419 19.000000
0.261444 -7.551256 5.368968 9.000000
0.201250 -7.964759 3.998915 13.000000
0.226236 -9.890929 4.352072 18.000000
0.298822 -9.509562 6.754455 11.000000
0.321163 -7.931821 6.974934 3.000000
0.176852 -7.967128 3.999809 22.000000
0.195109 -9.851268 4.334445 16.000000
0.263425 -9.498450 6.041969 32.000000
0.186267 -10.333855 3.940290 20.000000
0.296937 -7.935775 6.977571 5.000000
0.164869 -9.850904 4.334046 25.000000
0.153815 -10.282946 3.920817 28.000000
0.188026 -7.586242 4.830099 10.000000
0.269553 -9.507168 6.752146 15.000000
0.152425 -7.968526 4.000256 15.000000
0.240323 -9.505501 6.750414 12.000000
0.127879 -7.962692 3.997132 9.000000
0.134380 -9.831205 4.325233 16.000000
0.122406 -10.295525 3.925421 25.000000
0.272131 -7.923112 6.965713 10.000000
0.164857 -7.591850 4.833310 17.000000
0.103438 -7.962151 3.996686 13.000000
0.211228 -9.509457 6.752725 19.000000
0.103984 -9.808666 4.315218 14.000000
0.141472 -7.587251 4.830099 17.000000
0.091196 -10.340740 3.942417 14.000000
0.078967 -7.957956 3.994454 18.000000
0.073449 -9.746634 4.287976 8.000000
0.118155 -7.585114 4.828494 21.000000
0.059106 -10.272701 3.916569 20.000000
0.181960 -9.505161 6.749259 21.000000
0.152797 -9.505673 6.749260 11.000000
0.094953 -7.591353 4.832240 13.000000
0.043568 -9.752311 4.290380 16.000000
0.054563 -7.959949 3.995347 17.000000
0.027547 -10.254128 3.909488 23.000000
-0.003946 -10.296247 3.925425 19.000000
0.123643 -9.506910 6.749841 23.000000
0.013619 -9.721244 4.276762 27.000000
0.071723 -7.598365 4.836523 10.000000
0.030119 -7.952918 3.991779 13.000000
0.048410 -7.598547 4.836524 18.000000
-0.035349 -10.248488 3.907370 24.000000
0.005719 -7.950286 3.990443 20.000000
-0.016275 -9.754223 4.291187 14.000000
0.094537 -9.513773 6.754464 17.000000
0.126469 -7.941812 6.978896 4.000000
-0.018607 -7.927893 3.979287 17.000000
-0.045778 -9.672580 4.255535 18.000000
0.065322 -9.509934 6.751579 19.000000
-0.066706 -10.236173 3.902770 23.000000
0.025089 -7.595278 4.834386 16.000000
-0.075559 -9.685219 4.261147 23.000000
-0.043015 -7.942114 3.986431 17.000000
-0.098578 -10.282677 3.920478 19.000000
0.001782 -7.606299 4.841344 10.000000
0.036169 -9.517434 6.756780 11.000000
-0.104867 -9.649208 4.245526 16.000000
0.006969 -9.515864 6.755628 22.000000
-0.021606 -7.621474 4.850977 9.000000
-0.130124 -10.282323 3.920481 19.000000
-0.067268 -7.929415 3.980185 12.000000
-0.044912 -7.609542 4.843489 7.000000
-0.022223 -9.515021 6.755053 15.000000
-0.161669 -10.281874 3.920484 16.000000
0.053450 -7.956172 6.990762 10.000000
-0.133679 -9.593870 4.221491 31.000000
-0.091681 -7.936328 3.983758 22.000000
-0.162824 -9.576923 4.214283 21.000000
-0.051343 -9.502660 6.746393 25.000000
-0.193015 -10.271043 3.916592 23.000000
-0.115826 -7.922586 3.977065 7.000000
-0.223420 -10.220845 3.897829 48.000000
-0.190795 -9.507673 4.184239 44.000000
-0.140115 -7.921296 3.976621 12.000000
-0.080555 -9.508986 6.751016 19.000000
-0.221195 -9.559253 4.207078 76.000000
-0.109807 -9.515222 6.755639 18.000000
-0.254942 -10.226654 3.900311 68.000000
-0.164321 -7.916354 3.974392 14.000000
-0.188149 -7.897024 3.965022 12.000000
-0.044051 -7.933647 6.971007 3.000000
-0.250301 -9.550283 4.203475 67.000000
-0.139012 -9.515654 6.756220 21.000000
-0.286847 -10.244519 3.907395 29.000000
-0.320984 -10.329587 3.939974 16.000000
-0.168220 -9.515995 6.756800 12.000000
-0.212966 -7.917876 3.975735 13.000000
-0.280036 -9.564121 4.209888 87.000000
-0.068580 -7.953784 6.988797 4.000000
-0.356388 -10.436036 3.980696 10.000000
-0.309106 -9.554974 4.206285 85.000000
-0.237338 -7.919868 3.977076 19.000000
-0.197362 -9.512983 6.755070 8.000000
-0.261605 -7.918205 3.976633 20.000000
-0.383092 -10.293774 3.927233 21.000000
-0.178616 -7.540565 5.359758 7.000000
-0.338714 -9.562220 4.209893 93.000000
-0.116851 -7.918604 6.958498 5.000000
-0.367693 -9.551977 4.205890 103.000000
-0.415622 -10.315910 3.936088 16.000000
-0.256355 -9.534437 6.771246 12.000000
-0.286290 -7.928095 3.981990 21.000000
-0.165955 -7.941801 6.979583 5.000000
-0.310399 -7.921813 3.979315 18.000000
-0.396919 -9.548972 4.205091 134.000000
-0.285606 -9.533603 6.771249 9.000000
-0.253109 -7.550500 4.808730 4.000000
-0.448005 -10.331402 3.942464 13.000000
-0.315592 -9.554708 6.786845 13.000000
-0.335926 -7.949430 3.993599 25.000000
-0.426048 -9.544045 4.203491 124.000000
-0.480355 -10.343989 3.947779 17.000000
-0.271049 -7.535348 5.358035 9.000000
-0.508870 -10.278017 3.923350 15.000000
-0.455150 -9.539031 4.201891 136.000000
-0.359000 -7.919755 3.979319 14.000000
-0.383383 -7.920402 3.980214 21.000000
-0.294166 -7.534479 5.358037 8.000000
-0.542182 -10.310025 3.936100 13.000000
-0.484413 -9.537588 4.201894 155.000000
-0.317559 -7.540063 5.362659 12.000000
-0.406937 -7.904888 3.973075 8.000000
-0.513771 -9.537886 4.202698 152.000000
-0.574909 -10.327920 3.943538 17.000000
-0.340579 -7.536605 5.360928 12.000000
-0.287122 -7.921014 6.964442 4.000000
-0.432123 -7.920577 3.981557 17.000000
-0.543135 -9.538091 4.203502 177.000000
-0.604327 -10.287829 3.929024 12.000000
-0.572229 -9.533634 4.202303 172.000000
-0.463194 -9.570745 6.802452 12.000000
-0.456369 -7.918319 3.981113 21.000000
-0.310251 -7.890776 6.938752 8.000000
-0.636700 -10.298992 3.933984 23.000000
-0.670854 -10.336185 3.948858 18.000000
-0.601591 -9.533661 4.203107 166.000000
-0.481207 -7.925812 3.985578 16.000000
-0.386478 -7.527846 5.356312 20.000000
-0.704859 -10.367665 3.961608 18.000000
-0.505808 -7.928762 3.987812 17.000000
-0.409930 -7.533144 5.360934 16.000000
-0.631264 -9.538168 4.205914 196.000000
-0.359010 -7.896234 6.945343 5.000000
-0.433324 -7.536738 5.364401 16.000000
-0.530131 -7.927170 3.987814 17.000000
-0.660714 -9.538927 4.207119 194.000000
-0.736730 -10.366385 3.961965 22.000000
-0.768391 -10.362209 3.961260 25.000000
-0.553127 -7.906759 3.978444 9.000000
-0.689976 -9.536853 4.207121 150.000000
-0.455697 -7.523149 5.355741 16.000000
-0.719301 -9.535603 4.207524 162.000000
-0.577973 -7.913055 3.982462 12.000000
-0.480032 -7.541265 5.369603 21.000000
-0.800685 -10.366327 3.963742 23.000000
-0.602384 -7.913028 3.983357 13.000000
-0.455314 -7.881458 6.936788 4.000000
-0.748336 -9.530609 4.206325 170.000000
-0.835721 -10.403904 3.978970 12.000000
-0.479215 -7.875516 6.932837 6.000000
-0.777721 -9.530093 4.207129 161.000000
-0.626729 -7.912033 3.983805 15.000000
-0.867557 -10.400357 3.978619 14.000000
-0.899946 -10.403235 3.980746 15.000000
-0.651074 -7.910963 3.984254 15.000000
-0.807033 -9.528573 4.207532 168.000000
-0.931188 -10.392972 3.977916 10.000000
-0.836585 -9.529701 4.209137 141.000000
-0.526972 -7.864165 6.925595 4.000000
-0.674115 -7.894660 3.977115 10.000000
-0.962548 -10.384478 3.975794 9.000000
-0.699682 -7.907706 3.984704 12.000000
-0.865317 -9.521613 4.206735 133.000000
-0.894353 -9.517087 4.205936 104.000000
-0.992970 -10.366579 3.970132 13.000000
-0.724678 -7.913541 3.988723 22.000000
-0.923724 -9.516121 4.206740 119.000000
-0.601119 -7.882227 6.946023 4.000000
-0.749038 -7.912169 3.989171 20.000000
-0.772520 -7.901817 3.985157 11.000000
-0.953282 -9.516887 4.208346 95.000000
-0.671690 -7.602819 5.423329 7.000000
-0.624879 -7.875093 6.941413 6.000000
-0.799017 -7.921666 3.996316 18.000000
-0.982664 -9.515738 4.209149 88.000000
-0.674869 -7.890594 6.958546 7.000000
-0.822944 -7.915615 3.994533 13.000000
-0.847704 -7.917500 3.996767 12.000000
-0.873862 -7.931759 4.005249 19.000000
-0.960109 -9.519730 6.792677 5.000000
-0.746607 -7.875053 6.950646 5.000000
-0.898496 -7.931707 4.006589 15.000000
-0.767223 -7.836785 6.919026 9.000000
-0.922826 -7.928912 4.006591 18.000000
-0.947467 -7.928707 4.007932 13.000000
-0.789666 -7.818674 6.905194 4.000000
-0.814041 -7.819953 6.908490 9.000000
-0.974084 -7.944412 4.017307 24.000000
-0.838675 -7.823400 6.913762 3.000000
-0.998004 -7.937834 4.015523 20.000000
-0.861761 -7.812563 6.906517 5.000000
