# .PCD v0.7 - Point Cloud Data file format
VERSION 0.7
FIELDS x y z intensity
SIZE 4 4 4 4
TYPE F F F F
COUNT 1 1 1 1
WIDTH 82
HEIGHT 1
VIEWPOINT 0 0 0 1 0 0 0
POINTS 82
DATA ascii
-2.694667 9.005601 0.358503 18.000000
-2.646254 9.044271 0.358820 35.000000
-2.638515 9.123219 0.360850 14.000000
-2.620505 9.166549 0.361765 9.000000
-2.594920 9.182839 0.361835 13.000000
-2.533628 9.096542 0.818879 14.000000
-2.566935 9.190366 0.361633 10.000000
-2.538147 9.194916 0.361344 13.000000
-2.512790 9.129915 0.820816 13.000000
-2.507829 9.193578 0.360877 14.000000
-2.485720 9.140100 0.820858 22.000000
-2.475549 9.184392 0.360170 11.000000
-2.460364 9.156955 0.821452 13.000000
-2.429269 9.151522 0.820230 17.000000
-2.442109 9.170252 0.359313 13.000000
-2.405356 9.142426 0.358039 16.000000
-2.399445 9.150817 0.819404 26.000000
-2.381827 9.166843 0.358387 6.000000
-2.368676 9.146152 0.818266 5.000000
-2.341237 9.122282 0.356608 19.000000
-2.337489 9.139444 0.816970 7.000000
-2.292553 9.075458 0.811019 19.000000
-2.261209 9.066554 0.809568 19.000000
-2.230837 9.061435 0.808437 15.000000
-2.233280 9.163413 0.356302 16.000000
-2.199172 9.050385 0.806833 22.000000
-2.211394 9.196142 0.356921 20.000000
-2.172939 9.062542 0.807121 12.000000
-2.184687 9.208353 0.356914 27.000000
-2.155086 9.207810 0.356521 39.000000
-2.125077 9.205220 0.356070 59.000000
-2.097872 9.215223 0.356006 43.000000
-2.072080 9.231991 0.356151 34.000000
-2.042698 9.232064 0.355792 37.000000
-2.014953 9.239876 0.355673 38.000000
-2.767732 9.030365 0.150116 17.000000
-2.749999 9.072032 0.150200 16.000000
-2.727612 9.098294 0.150154 23.000000
-2.706731 9.130276 0.150156 21.000000
-2.684310 9.157412 0.150122 13.000000
-2.617214 9.047373 0.608765 28.000000
-2.658792 9.173899 0.150001 25.000000
-2.602347 9.101188 0.611312 17.000000
-2.630560 9.180664 0.149799 13.000000
-2.603619 9.192169 0.149638 21.000000
-2.579323 9.126095 0.612147 16.000000
-2.567788 9.170772 0.149214 10.000000
-2.562884 9.176024 0.614467 11.000000
-2.528516 9.135712 0.148682 23.000000
-2.533886 9.179617 0.614052 21.000000
-2.479845 9.063737 0.147855 53.000000
-2.500854 9.167657 0.612724 20.000000
-2.450960 9.066081 0.147630 46.000000
-2.477668 9.193274 0.613618 14.000000
-2.431736 9.106125 0.147711 29.000000
-2.451617 9.208206 0.613888 10.000000
-2.387925 9.073975 0.605393 31.000000
-2.355933 9.063448 0.604187 33.000000
-2.352909 9.145451 0.147309 18.000000
-2.331172 9.081897 0.604688 22.000000
-2.295731 9.056620 0.602631 38.000000
-2.332100 9.181407 0.147359 35.000000
-2.304793 9.191070 0.147203 67.000000
-2.268584 9.065202 0.602568 23.000000
-2.277920 9.202589 0.147061 64.000000
-2.282575 9.349392 0.147982 20.000000
-2.291953 9.520675 0.149091 11.000000
-2.190780 9.106978 0.603344 11.000000
-2.180196 9.189252 0.607601 23.000000
-2.258707 9.508768 0.148766 14.000000
-2.161750 9.238408 0.609924 39.000000
-2.214651 9.447948 0.148061 71.000000
-2.183691 9.444561 0.147807 32.000000
-2.132955 9.241706 0.609578 34.000000
-2.106477 9.255650 0.609859 48.000000
-2.160832 9.478210 0.147842 34.000000
-2.077635 9.258781 0.609517 54.000000
-2.055163 9.292109 0.610934 37.000000
-2.111660 9.531657 0.147807 11.000000
-2.028266 9.304848 0.611158 36.000000
-2.072841 9.490725 0.147270 8.000000
-2.008084 9.350775 0.613312 24.000000
