# .PCD v0.7 - Point Cloud Data file format
VERSION 0.7
FIELDS x y z intensity
SIZE 4 4 4 4
TYPE F F F F
COUNT 1 1 1 1
WIDTH 205
HEIGHT 1
VIEWPOINT 0 0 0 1 0 0 0
POINTS 205
DATA ascii
-7.044616 0.392754 5.048099 12.000000
-7.101834 0.418271 5.089805 24.000000
-7.144405 0.443245 5.120966 29.000000
-7.120660 0.463889 5.103992 21.000000
-7.129992 0.486727 5.111038 22.000000
-7.857929 0.554379 5.055000 7.000000
-7.871529 0.579853 5.064164 4.000000
-7.119054 0.508130 5.103429 13.000000
-7.859941 0.603455 5.057025 7.000000
-7.146795 0.532554 5.123996 6.000000
-7.167999 0.556628 5.139862 5.000000
-7.861666 0.652544 5.059016 9.000000
-7.852396 0.676181 5.053462 6.000000
-7.246535 0.630944 5.198475 6.000000
-7.856402 0.701068 5.056645 12.000000
-7.299688 0.658670 5.237761 8.000000
-7.845291 0.724557 5.050041 8.000000
-7.864208 0.750875 5.062959 7.000000
-7.331007 0.684531 5.261162 18.000000
-7.342086 0.708563 5.269902 19.000000
-7.857996 0.774749 5.059555 7.000000
-7.330487 0.730410 5.262278 17.000000
-7.870878 0.800702 5.068701 4.000000
-7.380873 0.758826 5.299760 14.000000
-7.394938 0.783503 5.310830 10.000000
-7.386378 0.805710 5.305487 14.000000
-7.419590 0.832816 5.330635 10.000000
-7.427758 0.857157 5.337623 10.000000
-7.854109 0.921889 5.062076 6.000000
-7.426212 0.880325 5.337554 8.000000
-7.460810 0.908017 5.363803 9.000000
-7.864744 0.972470 5.070979 3.000000
-7.878667 0.999014 5.081152 4.000000
-7.480811 0.934128 5.379543 13.000000
-7.994666 3.492857 0.368769 23.000000
-7.991349 3.519937 0.367906 27.000000
-7.976077 3.541751 0.366550 29.000000
-7.970740 3.568084 0.365653 24.000000
-7.959890 3.591854 0.364471 28.000000
-7.929932 3.606759 0.362428 27.000000
-7.921673 3.631696 0.361378 24.000000
-7.871714 3.637122 0.358517 11.000000
-7.792002 3.628137 0.354334 9.000000
-7.745805 3.634571 0.351603 11.000000
-7.795997 3.687098 0.353105 12.000000
-7.719118 3.678597 0.349085 7.000000
-7.676489 3.686306 0.346559 9.000000
-7.614181 3.684032 0.343149 13.000000
-7.567166 3.688980 0.340424 8.000000
-7.473678 3.670526 0.335732 15.000000
-7.473219 3.698216 0.335052 13.000000
-7.453959 3.716408 0.333536 10.000000
-7.346545 3.689543 0.328244 14.000000
-7.391293 3.740271 0.329513 17.000000
-7.223756 3.681410 0.321696 12.000000
-7.215226 3.704304 0.320661 12.000000
-7.972635 4.155735 0.786629 16.000000
-7.135871 3.689961 0.316607 12.000000
-7.950350 4.174480 0.784432 25.000000
-7.163492 3.731835 0.317141 17.000000
-7.119510 3.735804 0.314636 7.000000
-7.934169 4.196426 0.782834 32.000000
-7.084391 3.744226 0.312485 16.000000
-7.924088 4.221578 0.781805 36.000000
-7.913936 4.246687 0.780761 34.000000
-7.902797 4.271361 0.779666 39.000000
-7.895936 4.298427 0.778999 31.000000
-7.889890 4.325905 0.778373 34.000000
-7.880268 4.351446 0.777407 34.000000
-7.892231 4.389259 0.778585 44.000000
-7.861589 4.403065 0.775605 26.000000
-7.873335 4.440930 0.776742 34.000000
-7.894420 4.484378 0.778794 46.000000
-7.885995 4.511022 0.777989 36.000000
-7.859408 4.527109 0.775420 33.000000
-7.840549 4.547581 0.773582 26.000000
-7.773644 4.539505 0.767037 12.000000
-7.728223 4.543884 0.762630 7.000000
-7.687961 4.551128 0.758741 8.000000
-7.658826 4.564844 0.755925 13.000000
-7.545446 4.527056 0.744848 4.000000
-7.500292 4.530360 0.740480 12.000000
-7.616281 4.632935 0.751888 17.000000
-7.385582 4.521018 0.729372 10.000000
-7.338962 4.522441 0.724838 8.000000
-7.302492 4.530046 0.721330 16.000000
-7.220571 4.508687 0.713406 11.000000
-7.219510 4.538319 0.713366 6.000000
-7.147095 4.522140 0.706326 12.000000
-7.202853 4.588426 0.711842 5.000000
-7.065326 4.529498 0.698492 7.000000
-7.936877 3.154844 0.165015 16.000000
-7.025345 4.563439 0.694732 14.000000
-7.959663 3.191693 0.164524 26.000000
-7.815847 3.160283 0.160990 16.000000
-7.823743 3.190891 0.160264 21.000000
-7.703351 3.167825 0.157144 13.000000
-7.707516 3.196578 0.156314 17.000000
-7.634278 3.192559 0.154130 10.000000
-7.610744 3.209433 0.152851 20.000000
-7.614735 3.238021 0.152009 22.000000
-7.571885 3.246266 0.150338 15.000000
-7.518048 3.249521 0.148522 17.000000
-7.464254 3.252500 0.146727 16.000000
-7.453432 3.274301 0.145642 16.000000
-7.356873 3.257408 0.143069 16.000000
-7.300513 3.258229 0.141237 14.000000
-7.286931 3.278338 0.140151 18.000000
-7.216120 3.271936 0.138076 14.000000
-7.172619 3.277767 0.136452 13.000000
-7.094733 3.267275 0.134295 10.000000
-7.032335 3.263629 0.132418 18.000000
-7.997129 3.800488 0.577460 60.000000
-7.999043 3.830961 0.577235 54.000000
-7.998950 3.890290 0.576517 59.000000
-7.999348 3.950147 0.575803 62.000000
-7.992684 3.976800 0.574991 67.000000
-7.986832 4.003879 0.574223 56.000000
-7.978246 4.029541 0.573234 40.000000
-7.884455 4.011214 0.566263 24.000000
-7.783742 3.988719 0.558845 13.000000
-7.776044 4.014319 0.557967 18.000000
-7.710937 4.009527 0.553013 17.000000
-7.626533 3.994089 0.546730 8.000000
-7.641653 4.031548 0.547482 13.000000
-7.545980 4.009339 0.540447 15.000000
-7.517169 4.022782 0.538072 9.000000
-7.503224 4.044244 0.536743 12.000000
-7.484810 4.063326 0.535152 10.000000
-7.440182 4.067777 0.531724 11.000000
-7.416529 4.083629 0.529727 18.000000
-7.351989 4.076320 0.524867 15.000000
-7.279706 4.064309 0.519525 12.000000
-7.252363 4.106277 0.517006 6.000000
-7.169978 4.087329 0.510926 11.000000
-7.046363 4.043829 0.502023 14.000000
-7.003947 4.047203 0.498800 18.000000
-7.000258 4.073181 0.498240 6.000000
-7.669178 4.906516 0.987573 15.000000
-7.618561 4.906092 0.981642 16.000000
-7.560516 4.900524 0.974784 9.000000
-7.534899 4.916070 0.972089 11.000000
-7.521702 4.939721 0.970955 13.000000
-7.444030 4.920117 0.961549 5.000000
-7.434890 4.946354 0.960988 8.000000
-7.417443 4.966981 0.959361 8.000000
-7.365505 4.963908 0.953270 6.000000
-7.345599 4.982553 0.951295 6.000000
-7.321514 4.998363 0.948833 9.000000
-7.237067 4.971937 0.938579 5.000000
-7.191930 4.972446 0.933369 8.000000
-7.185026 4.999699 0.933092 11.000000
-7.075079 4.953786 0.919539 14.000000
-7.003471 4.934474 0.910938 4.000000
-8.115403 -5.848632 2.482419 12.000000
-8.119648 -5.814464 2.478197 8.000000
-8.122921 -5.779832 2.473691 12.000000
-8.126049 -5.745251 2.469174 12.000000
-8.140197 -5.718472 2.468029 15.000000
-8.146311 -5.686073 2.464513 8.000000
-8.161848 -5.660382 2.463830 6.000000
-8.174883 -5.633031 2.462408 7.000000
-8.200672 -5.614393 2.464829 10.000000
-8.250548 -5.575682 2.469209 8.000000
-8.271362 -5.553518 2.470174 9.000000
-8.312323 -5.544742 2.477112 11.000000
-8.338771 -5.526050 2.479788 7.000000
-8.792794 -5.379563 2.551676 6.000000
-8.729780 -5.312129 2.002350 4.000000
-8.789401 -5.276176 2.008094 4.000000
-8.875678 -5.147480 2.008650 5.000000
-8.787677 -5.053656 2.507702 4.000000
-8.890395 -5.084600 2.004568 8.000000
-8.068122 -5.977191 2.776287 9.000000
-8.074524 -5.944212 2.772141 5.000000
-8.084641 -5.914177 2.769267 13.000000
-8.065793 -5.863139 2.756625 17.000000
-8.073323 -5.831424 2.752994 9.000000
-8.076824 -5.796896 2.748047 8.000000
-8.095076 -5.773094 2.748087 9.000000
-8.109326 -5.746439 2.746809 15.000000
-8.117189 -5.715295 2.743426 5.000000
-8.144724 -5.697933 2.746671 6.000000
-8.170605 -5.679422 2.749348 11.000000
-8.190886 -5.656979 2.750168 12.000000
-8.212723 -5.635513 2.751543 15.000000
-8.025540 -5.460237 2.171191 5.000000
-8.272774 -5.640020 2.765602 5.000000
-8.090525 -5.468826 2.183916 9.000000
-8.377905 -5.637990 2.788622 6.000000
-8.153989 -5.476018 2.196183 12.000000
-8.241469 -5.462837 2.210223 7.000000
-8.258737 -5.438503 2.210214 5.000000
-8.298792 -5.429117 2.216218 15.000000
-8.422511 -5.437716 2.239716 5.000000
-8.735544 -5.614156 2.865154 4.000000
-8.441371 -5.413851 2.240148 8.000000
-8.576250 -5.463964 2.270920 6.000000
-8.767904 -5.475044 2.307303 4.000000
-8.795978 -5.455850 2.310040 7.000000
-8.702734 -5.229062 2.799433 6.000000
-8.749505 -5.114441 2.793466 10.000000
-8.777641 -5.049098 2.257895 6.000000
-8.795558 -5.035010 2.792769 5.000000
-7.506662 0.188735 5.005215 27.000000
