# .PCD v0.7 - Point Cloud Data file format
VERSION 0.7
FIELDS x y z intensity
SIZE 4 4 4 4
TYPE F F F F
COUNT 1 1 1 1
WIDTH 1253
HEIGHT 1
VIEWPOINT 0 0 0 1 0 0 0
POINTS 1253
DATA ascii
1.010365 1.866311 -1.522375 44.000000
1.650623 1.844070 -1.495831 71.000000
1.016859 1.864610 -1.523568 32.000000
1.489955 1.663184 -1.507944 78.000000
1.342251 1.495963 -1.511913 48.000000
1.091462 1.210846 -1.516189 36.000000
1.216200 1.352860 -1.521620 22.000000
1.649466 1.831428 -1.489480 84.000000
1.349479 1.494770 -1.514982 39.000000
1.096625 1.209096 -1.518268 24.000000
1.493954 1.657385 -1.506802 77.000000
1.220346 1.349122 -1.521622 27.000000
1.025682 1.867108 -1.528332 53.000000
1.100330 1.205725 -1.518270 19.000000
1.497380 1.650969 -1.505088 65.000000
1.029454 1.860441 -1.525358 55.000000
1.655647 1.826986 -1.490011 77.000000
1.223462 1.344250 -1.520316 25.000000
1.352467 1.488867 -1.513143 48.000000
1.105973 1.204470 -1.521042 28.000000
1.362352 1.490543 -1.519280 36.000000
1.501886 1.645759 -1.504518 80.000000
1.227580 1.340489 -1.520318 21.000000
1.660673 1.821270 -1.489484 90.000000
1.033193 1.853767 -1.522385 47.000000
1.109664 1.201070 -1.521044 18.000000
1.036113 1.845689 -1.518221 41.000000
1.232712 1.337829 -1.521627 33.000000
1.666827 1.816791 -1.490016 92.000000
1.360510 1.479375 -1.511920 49.000000
1.505820 1.639934 -1.503376 79.000000
1.671818 1.811044 -1.489489 92.000000
1.233727 1.330707 -1.517707 25.000000
1.509733 1.634099 -1.502234 71.000000
1.116778 1.201361 -1.525893 24.000000
1.367186 1.477513 -1.514376 41.000000
1.040977 1.841103 -1.517033 41.000000
1.237805 1.326915 -1.517709 26.000000
1.119967 1.197401 -1.525202 23.000000
1.049814 1.843479 -1.521797 52.000000
1.680829 1.809637 -1.492668 104.000000
1.511950 1.626453 -1.499376 77.000000
1.376015 1.477938 -1.519286 38.000000
1.050650 1.831894 -1.514657 42.000000
1.516933 1.621806 -1.499378 74.000000
1.686373 1.804471 -1.492671 78.000000
1.240318 1.321453 -1.515750 31.000000
1.126105 1.196587 -1.528666 25.000000
1.372452 1.465057 -1.510086 46.000000
1.243329 1.316539 -1.514445 35.000000
1.693644 1.801142 -1.494262 100.000000
1.131257 1.194698 -1.530746 19.000000
1.383976 1.468315 -1.518063 35.000000
1.059493 1.834221 -1.519422 48.000000
1.521902 1.617143 -1.499381 72.000000
1.526293 1.611869 -1.498811 74.000000
1.243196 1.308324 -1.509218 25.000000
1.062277 1.826105 -1.515258 39.000000
1.134918 1.191221 -1.530747 31.000000
1.381959 1.457179 -1.510703 49.000000
1.699162 1.795937 -1.494264 83.000000
1.069914 1.826298 -1.518236 44.000000
1.138568 1.187733 -1.530749 38.000000
1.385335 1.451788 -1.509478 48.000000
1.530666 1.606584 -1.498241 71.000000
1.707587 1.793789 -1.496914 89.000000
1.247727 1.305050 -1.509873 33.000000
1.536156 1.602472 -1.498815 74.000000
1.907604 1.993268 -1.484845 104.000000
1.248580 1.297939 -1.505954 39.000000
1.077971 1.827153 -1.521810 44.000000
1.388690 1.446390 -1.508253 46.000000
1.144208 1.186312 -1.533521 28.000000
1.711324 1.786701 -1.495328 82.000000
1.540496 1.597159 -1.498245 81.000000
1.251505 1.293013 -1.504648 41.000000
1.719151 1.783886 -1.497448 74.000000
1.391477 1.440416 -1.506414 44.000000
1.084808 1.825906 -1.523599 45.000000
1.911287 1.984885 -1.482904 89.000000
1.147341 1.182277 -1.532830 26.000000
1.090819 1.823257 -1.524197 44.000000
1.393690 1.433872 -1.503962 49.000000
1.545390 1.592425 -1.498247 81.000000
1.721076 1.774946 -1.494273 97.000000
1.916152 1.977755 -1.481935 92.000000
1.253357 1.286995 -1.502035 24.000000
1.150963 1.178750 -1.532831 14.000000
1.096825 1.820589 -1.524794 41.000000
1.723554 1.766618 -1.491628 95.000000
1.921602 1.971239 -1.481452 87.000000
1.258358 1.284225 -1.503344 25.000000
1.399738 1.431284 -1.505805 34.000000
1.153564 1.174182 -1.531448 23.000000
1.551986 1.589437 -1.499965 64.000000
1.102824 1.817900 -1.525392 41.000000
1.398589 1.421348 -1.499672 53.000000
1.555707 1.583496 -1.498823 87.000000
1.261231 1.279279 -1.502039 31.000000
1.156655 1.170123 -1.530757 26.000000
1.726591 1.758898 -1.489512 85.000000
1.924583 1.962212 -1.479026 95.000000
1.561711 1.579882 -1.499969 73.000000
1.267280 1.277553 -1.504655 22.000000
1.159224 1.165544 -1.529373 24.000000
1.108396 1.814507 -1.525395 44.000000
1.735554 1.757215 -1.492691 70.000000
1.927526 1.953184 -1.476599 92.000000
1.406275 1.420419 -1.503354 38.000000
1.272797 1.275267 -1.506617 29.000000
1.734962 1.745860 -1.487399 106.000000
1.408399 1.413857 -1.500902 40.000000
1.114381 1.811780 -1.525992 46.000000
1.932895 1.946640 -1.476116 105.000000
1.565973 1.574500 -1.499399 72.000000
1.158207 1.157387 -1.523142 27.000000
1.253933 1.999157 -1.516722 124.000000
1.121209 1.810399 -1.527781 52.000000
1.939476 1.941318 -1.476604 101.000000
1.278847 1.273493 -1.509233 32.000000
1.740310 1.740528 -1.487401 77.000000
1.163287 1.155353 -1.525221 16.000000
1.414406 1.411204 -1.502744 44.000000
1.570797 1.569687 -1.499401 74.000000
1.941707 1.931657 -1.473692 101.000000
1.126331 1.806268 -1.527188 50.000000
1.002171 1.631152 -1.529544 50.000000
1.166314 1.151271 -1.524530 21.000000
1.575606 1.564860 -1.499403 81.000000
1.260061 1.995300 -1.516725 102.000000
1.746244 1.735778 -1.487932 76.000000
1.422091 1.410196 -1.506427 39.000000
1.282749 1.269563 -1.509235 35.000000
1.288255 1.267214 -1.511197 23.000000
1.167269 1.145157 -1.521069 40.000000
1.578650 1.558287 -1.497689 69.000000
1.007579 1.628724 -1.530182 52.000000
1.424726 1.404160 -1.504589 48.000000
1.122865 1.788531 -1.514690 33.000000
1.263487 1.987210 -1.513410 102.000000
1.947625 1.925689 -1.473695 94.000000
1.750958 1.729815 -1.487405 81.000000
1.012162 1.624970 -1.529548 52.000000
1.758677 1.726813 -1.489526 93.000000
1.133517 1.793216 -1.521836 44.000000
1.291597 1.262725 -1.510545 29.000000
1.167166 1.138041 -1.516222 22.000000
1.955394 1.921543 -1.475154 125.000000
1.583424 1.553436 -1.497691 73.000000
1.269578 1.983323 -1.513412 104.000000
1.427336 1.398123 -1.502750 56.000000
1.587009 1.547423 -1.496549 76.000000
1.016320 1.620551 -1.528278 46.000000
1.131222 1.777544 -1.511124 38.000000
1.172205 1.135961 -1.518301 23.000000
1.431620 1.393736 -1.502752 40.000000
1.964405 1.918589 -1.477585 117.000000
1.285163 1.994108 -1.525027 119.000000
1.296008 1.259284 -1.511201 31.000000
1.763968 1.721408 -1.489528 94.000000
1.285818 1.981777 -1.518394 103.000000
1.140586 1.780145 -1.516483 43.000000
1.298778 1.254248 -1.509895 31.000000
1.769241 1.715987 -1.489530 76.000000
1.970283 1.912553 -1.477588 118.000000
1.175685 1.132358 -1.518303 33.000000
1.023769 1.621332 -1.532098 54.000000
1.436456 1.389886 -1.503367 50.000000
1.587041 1.537976 -1.491975 97.000000
1.593524 1.534807 -1.493693 84.000000
1.775719 1.711728 -1.490591 104.000000
1.295091 1.982699 -1.522268 126.000000
1.027492 1.616232 -1.530192 44.000000
1.976142 1.906498 -1.477590 101.000000
1.302075 1.249732 -1.509243 34.000000
1.142983 1.771916 -1.512319 41.000000
1.437871 1.382732 -1.500301 49.000000
1.178113 1.127746 -1.516919 23.000000
1.983243 1.901636 -1.478564 112.000000
1.441536 1.377767 -1.499690 59.000000
1.182090 1.124623 -1.517613 21.000000
1.155440 1.779167 -1.521846 50.000000
1.297955 1.973848 -1.518400 110.000000
1.598818 1.530477 -1.494267 64.000000
1.034534 1.616315 -1.533376 58.000000
1.306997 1.246776 -1.510552 30.000000
1.780350 1.705684 -1.490064 91.000000
1.303083 1.968467 -1.517297 103.000000
1.039488 1.613132 -1.533378 48.000000
1.444613 1.372248 -1.498464 48.000000
1.784348 1.699042 -1.489007 126.000000
1.163099 1.778971 -1.524824 62.000000
1.309171 1.241195 -1.508593 33.000000
1.602318 1.524432 -1.493124 81.000000
1.989701 1.896144 -1.479052 96.000000
1.188677 1.123967 -1.521770 33.000000
1.186869 1.115368 -1.514846 15.000000
1.789552 1.693559 -1.489009 85.000000
1.311872 1.236133 -1.507287 28.000000
1.603415 1.516124 -1.489694 86.000000
1.446522 1.365638 -1.496012 48.000000
1.165450 1.770701 -1.520660 43.000000
1.308653 1.963767 -1.516746 112.000000
1.048647 1.616395 -1.539744 64.000000
1.994875 1.889429 -1.478569 93.000000
1.796593 1.689804 -1.490600 93.000000
1.318419 1.234691 -1.510557 22.000000
1.170877 1.767116 -1.520662 43.000000
1.314673 1.959742 -1.516749 112.000000
1.999391 1.882099 -1.477600 85.000000
1.448979 1.359570 -1.494173 42.000000
1.607462 1.510635 -1.489124 79.000000
1.047674 1.604142 -1.530837 47.000000
1.189759 1.111228 -1.514155 35.000000
1.796815 1.679645 -1.486365 87.000000
1.179872 1.768855 -1.525427 51.000000
1.054293 1.603493 -1.533385 51.000000
1.319744 1.954319 -1.515646 104.000000
1.613887 1.507376 -1.490842 77.000000
1.322201 1.230639 -1.510558 26.000000
1.196332 1.110519 -1.518312 32.000000
1.452567 1.354578 -1.493562 67.000000
1.325734 1.950259 -1.515648 107.000000
1.457873 1.351189 -1.494790 63.000000
1.187990 1.769222 -1.529001 53.000000
1.801960 1.674124 -1.486367 97.000000
1.328191 1.228633 -1.513174 26.000000
1.057926 1.598324 -1.531478 46.000000
1.616702 1.500741 -1.489128 74.000000
1.200793 1.107822 -1.519698 26.000000
1.205780 1.105597 -1.521777 20.000000
1.189802 1.760251 -1.524240 38.000000
1.463753 1.348316 -1.496632 60.000000
1.620697 1.495217 -1.488557 80.000000
1.336902 1.953737 -1.521733 129.000000
1.331955 1.224553 -1.513175 38.000000
1.805219 1.666860 -1.484780 93.000000
1.061537 1.593147 -1.529570 52.000000
1.200185 1.763889 -1.530790 57.000000
1.341468 1.947570 -1.520076 156.000000
1.810325 1.661313 -1.484782 96.000000
1.065126 1.587964 -1.527663 41.000000
1.466719 1.342751 -1.495406 51.000000
1.336264 1.220971 -1.513830 29.000000
1.209699 1.102379 -1.522471 29.000000
1.624068 1.489128 -1.487414 67.000000
1.211474 1.097207 -1.520394 26.000000
1.069560 1.584050 -1.527028 51.000000
1.348389 1.944813 -1.521184 149.000000
1.341683 1.218393 -1.515792 27.000000
1.815413 1.655751 -1.484783 80.000000
1.205591 1.760198 -1.530792 57.000000
1.626812 1.482479 -1.485700 89.000000
1.472583 1.339841 -1.497248 63.000000
1.073109 1.578850 -1.525121 50.000000
1.210528 1.755831 -1.530199 48.000000
1.213227 1.092036 -1.518317 20.000000
1.820485 1.650174 -1.484785 99.000000
1.354828 1.941349 -1.521739 134.000000
1.476687 1.335316 -1.497249 46.000000
1.345415 1.214271 -1.515793 34.000000
1.633783 1.479686 -1.487989 67.000000
1.349134 1.210137 -1.515794 28.000000
1.215909 1.752108 -1.530200 56.000000
1.478430 1.328666 -1.494797 47.000000
1.077948 1.575550 -1.525122 46.000000
1.219258 1.090716 -1.521781 24.000000
1.829319 1.647990 -1.487964 67.000000
1.360777 1.937183 -1.521741 132.000000
1.639533 1.475764 -1.489135 69.000000
1.644664 1.471274 -1.489708 84.000000
1.369608 1.937075 -1.525061 104.000000
1.219895 1.746396 -1.528416 53.000000
1.083216 1.572870 -1.525760 59.000000
1.352841 1.205992 -1.515796 32.000000
1.830576 1.638972 -1.484788 76.000000
1.487207 1.328336 -1.499706 48.000000
1.220983 1.085530 -1.519704 20.000000
1.354837 1.200329 -1.513836 23.000000
1.649783 1.466767 -1.490281 70.000000
1.371185 1.926762 -1.520086 127.000000
1.836863 1.634476 -1.485848 74.000000
1.489505 1.322193 -1.497867 52.000000
1.085832 1.566374 -1.522580 49.000000
1.223768 1.081300 -1.519013 22.000000
1.223856 1.740676 -1.526632 63.000000
1.090189 1.562404 -1.521946 47.000000
1.357378 1.195165 -1.512530 27.000000
1.655504 1.462785 -1.491427 85.000000
1.377090 1.922546 -1.520088 139.000000
1.837424 1.624896 -1.482143 82.000000
1.496514 1.320231 -1.500935 48.000000
1.224070 1.729708 -1.520086 48.000000
1.224914 1.075634 -1.516244 23.000000
1.842400 1.619251 -1.482145 104.000000
1.227033 1.722677 -1.517112 46.000000
1.499371 1.314591 -1.499709 42.000000
1.097203 1.562202 -1.525129 49.000000
1.221693 1.066172 -1.507934 9.000000
1.357055 1.187502 -1.507956 25.000000
1.382982 1.918312 -1.520090 128.000000
1.659985 1.457699 -1.491428 67.000000
1.387390 1.912039 -1.518433 129.000000
1.099756 1.555684 -1.521949 43.000000
1.665684 1.453679 -1.492573 71.000000
1.223869 1.061473 -1.506550 24.000000
1.851829 1.617500 -1.485853 70.000000
1.502802 1.309465 -1.499097 56.000000
1.361263 1.183830 -1.508610 28.000000
1.230434 1.716296 -1.514733 43.000000
1.849741 1.605690 -1.480029 81.000000
1.506813 1.304848 -1.499098 48.000000
1.364889 1.179648 -1.508612 39.000000
1.391771 1.905758 -1.516776 107.000000
1.670137 1.448562 -1.492575 78.000000
1.228758 1.059127 -1.508629 22.000000
1.239938 1.718368 -1.520092 60.000000
1.104075 1.551675 -1.521314 49.000000
1.513202 1.302281 -1.501554 42.000000
1.852733 1.598343 -1.478442 78.000000
1.363339 1.171011 -1.502730 22.000000
1.239522 1.706766 -1.512950 40.000000
1.111535 1.552037 -1.525134 60.000000
1.675194 1.443967 -1.493148 86.000000
1.233644 1.056762 -1.510707 29.000000
1.397612 1.901478 -1.516778 119.000000
1.243326 1.701012 -1.511166 43.000000
1.403936 1.897850 -1.517333 120.000000
1.680862 1.439888 -1.494294 60.000000
1.114934 1.546745 -1.523226 63.000000
1.854410 1.589888 -1.475796 96.000000
1.518989 1.299174 -1.503395 37.000000
1.364625 1.164855 -1.500117 37.000000
1.235783 1.052035 -1.509323 28.000000
1.000288 1.410532 -1.536241 22.000000
1.247584 1.695897 -1.509978 32.000000
1.368192 1.160663 -1.500118 31.000000
1.864442 1.588596 -1.480034 68.000000
1.518760 1.290924 -1.499102 53.000000
1.111947 1.532721 -1.512410 38.000000
1.239555 1.048705 -1.510017 24.000000
1.685272 1.434724 -1.494295 79.000000
1.409752 1.893534 -1.517335 117.000000
1.523316 1.286768 -1.499717 45.000000
1.244974 1.046756 -1.512788 25.000000
1.116645 1.529302 -1.512411 37.000000
1.689665 1.429547 -1.494296 59.000000
1.259495 1.701087 -1.518313 50.000000
1.369434 1.154506 -1.497505 35.000000
1.413552 1.886536 -1.515125 129.000000
1.007198 1.401978 -1.533541 17.000000
1.865425 1.579577 -1.476858 84.000000
1.868316 1.572206 -1.475271 75.000000
1.017131 1.406629 -1.542329 15.000000
1.248180 1.042931 -1.512789 19.000000
1.527861 1.282597 -1.500331 34.000000
1.420842 1.884183 -1.516786 146.000000
1.371811 1.149325 -1.496199 34.000000
1.695298 1.425413 -1.495442 75.000000
1.132332 1.540760 -1.527686 69.000000
1.262782 1.694642 -1.515934 31.000000
1.873782 1.567011 -1.475801 88.000000
1.249156 1.037251 -1.510020 25.000000
1.267008 1.689476 -1.514745 46.000000
1.375331 1.145111 -1.496200 25.000000
1.017088 1.397554 -1.535571 19.000000
1.527548 1.274358 -1.496038 45.000000
1.126928 1.523659 -1.513687 40.000000
1.698406 1.419152 -1.494299 74.000000
1.425101 1.877826 -1.515128 154.000000
1.130673 1.518959 -1.512416 57.000000
1.254000 1.034793 -1.512098 19.000000
1.885101 1.566681 -1.481098 77.000000
1.431363 1.874106 -1.515683 141.000000
1.704013 1.414983 -1.495444 72.000000
1.017874 1.389680 -1.530166 30.000000
1.273642 1.687501 -1.516532 50.000000
1.380586 1.142335 -1.498161 26.000000
1.529628 1.268152 -1.494198 45.000000
1.707082 1.408703 -1.494301 77.000000
1.888591 1.559809 -1.480041 90.000000
1.135792 1.516099 -1.513054 54.000000
1.282713 1.688696 -1.521296 54.000000
1.439651 1.873004 -1.518450 127.000000
1.257726 1.031398 -1.512792 15.000000
1.537775 1.266971 -1.498494 28.000000
1.023011 1.387735 -1.531519 27.000000
1.382332 1.136650 -1.496202 29.000000
1.029027 1.386952 -1.534224 32.000000
1.387570 1.133842 -1.498163 25.000000
1.445391 1.868578 -1.518452 139.000000
1.709495 1.401898 -1.492586 82.000000
1.533717 1.255737 -1.490520 47.000000
1.256974 1.024340 -1.507945 24.000000
1.288867 1.686027 -1.522488 51.000000
1.143234 1.516296 -1.516874 55.000000
1.893368 1.554008 -1.480042 79.000000
1.449065 1.861509 -1.516242 111.000000
1.901412 1.550874 -1.482691 84.000000
1.146946 1.511554 -1.515603 38.000000
1.713153 1.396127 -1.492015 57.000000
1.290594 1.677614 -1.518323 49.000000
1.032393 1.382609 -1.532874 43.000000
1.538175 1.251524 -1.491134 45.000000
1.393977 1.131967 -1.501433 30.000000
1.259551 1.020024 -1.507253 24.000000
1.714880 1.388798 -1.489728 73.000000
1.153457 1.510476 -1.518150 47.000000
1.908137 1.546637 -1.484281 70.000000
1.455284 1.857709 -1.516797 117.000000
1.261552 1.015249 -1.505869 26.000000
1.398032 1.128161 -1.502087 26.000000
1.037963 1.381199 -1.534903 30.000000
1.539553 1.244811 -1.488681 49.000000
1.298695 1.677452 -1.521897 54.000000
1.160915 1.510592 -1.521970 59.000000
1.299379 1.667764 -1.516541 40.000000
1.403257 1.125288 -1.504049 26.000000
1.715940 1.380956 -1.486869 65.000000
1.911553 1.539710 -1.483223 77.000000
1.463045 1.855848 -1.519011 129.000000
1.266913 1.013178 -1.508640 28.000000
1.540905 1.238101 -1.486229 46.000000
1.042196 1.378007 -1.534904 33.000000
1.164124 1.505196 -1.520062 52.000000
1.045075 1.373048 -1.532878 20.000000
1.718888 1.374660 -1.485727 69.000000
1.269451 1.008837 -1.507949 28.000000
1.914944 1.532777 -1.482165 79.000000
1.544696 1.233367 -1.486230 48.000000
1.409661 1.123339 -1.507318 25.000000
1.465099 1.846788 -1.515142 116.000000
1.304986 1.664401 -1.517138 41.000000
1.470758 1.842285 -1.515143 111.000000
1.916984 1.524781 -1.480049 80.000000
1.411915 1.118068 -1.506012 31.000000
1.311584 1.662278 -1.518925 42.000000
1.168737 1.501617 -1.520064 47.000000
1.049283 1.369834 -1.532880 32.000000
1.721815 1.368358 -1.484584 66.000000
1.277631 1.008966 -1.514183 18.000000
1.551564 1.231079 -1.489298 58.000000
1.417122 1.115136 -1.507974 23.000000
1.555954 1.226802 -1.489913 48.000000
1.921653 1.518892 -1.480050 78.000000
1.053029 1.366026 -1.532205 48.000000
1.476403 1.837763 -1.515145 110.000000
1.726005 1.363069 -1.484585 70.000000
1.286391 1.009500 -1.521109 26.000000
1.173338 1.498024 -1.520065 46.000000
1.316678 1.658246 -1.518927 37.000000
1.558468 1.221048 -1.488687 52.000000
1.481510 1.832578 -1.514594 104.000000
1.321257 1.653572 -1.518333 40.000000
1.174576 1.490184 -1.515612 37.000000
1.731468 1.358780 -1.485730 80.000000
1.290619 1.006437 -1.522495 16.000000
1.422324 1.112183 -1.509936 30.000000
1.922971 1.510367 -1.477404 83.000000
1.054948 1.359883 -1.528827 27.000000
1.734336 1.352452 -1.484587 64.000000
1.567189 1.220145 -1.493596 40.000000
1.425729 1.107814 -1.509937 21.000000
1.926927 1.503938 -1.476875 87.000000
1.323295 1.645759 -1.514764 40.000000
1.182989 1.491399 -1.520705 52.000000
1.059571 1.357220 -1.529505 33.000000
1.489760 1.831250 -1.517361 115.000000
1.293701 1.002472 -1.522496 21.000000
1.579664 1.222103 -1.502186 31.000000
1.493256 1.824096 -1.515151 128.000000
1.300198 1.001143 -1.526653 16.000000
1.433911 1.107139 -1.515166 15.000000
1.930862 1.497498 -1.476347 93.000000
1.741070 1.349136 -1.486877 60.000000
1.066015 1.356853 -1.532885 27.000000
1.326311 1.639197 -1.512384 40.000000
1.181767 1.480542 -1.513070 38.000000
1.184366 1.474508 -1.510526 37.000000
1.071090 1.354730 -1.534239 16.000000
1.745850 1.344289 -1.487450 71.000000
1.570892 1.207615 -1.489917 55.000000
1.942163 1.496750 -1.481644 66.000000
1.330316 1.633876 -1.511195 43.000000
1.498845 1.819506 -1.515153 120.000000
1.430101 1.097199 -1.507324 21.000000
1.751920 1.340423 -1.489167 70.000000
1.577726 1.205189 -1.492986 46.000000
1.191802 1.474460 -1.514345 43.000000
1.073860 1.349711 -1.532212 27.000000
1.943381 1.488203 -1.478997 76.000000
1.432859 1.092347 -1.506672 20.000000
1.334302 1.628546 -1.510006 48.000000
1.500690 1.810415 -1.511284 132.000000
1.680285 1.994979 -1.495604 102.000000
1.507307 1.807080 -1.512391 114.000000
1.434395 1.086573 -1.504712 27.000000
1.197785 1.472587 -1.516256 50.000000
1.947263 1.481719 -1.478469 80.000000
1.594617 1.210380 -1.505871 33.000000
1.342880 1.628776 -1.514175 60.000000
1.756024 1.335041 -1.489169 68.000000
1.077534 1.345835 -1.531538 24.000000
1.758150 1.328163 -1.487453 66.000000
1.685841 1.989159 -1.495096 119.000000
1.506939 1.795438 -1.506310 104.000000
1.585722 1.195961 -1.493602 52.000000
1.958563 1.480859 -1.483766 66.000000
1.080730 1.341378 -1.530188 32.000000
1.195927 1.461161 -1.507985 32.000000
1.435910 1.080799 -1.502752 30.000000
1.343755 1.619710 -1.509414 49.000000
1.954285 1.468213 -1.476883 82.000000
1.766150 1.325719 -1.490887 58.000000
1.208767 1.467586 -1.518805 53.000000
1.518368 1.797797 -1.512395 116.000000
1.346653 1.613117 -1.507035 30.000000
1.439219 1.076389 -1.502753 25.000000
1.589384 1.191090 -1.493603 49.000000
1.693614 1.985939 -1.496627 139.000000
1.087635 1.341482 -1.534244 24.000000
1.966254 1.467797 -1.482709 74.000000
1.696892 1.977473 -1.494081 117.000000
1.764952 1.316367 -1.486312 86.000000
1.594930 1.187624 -1.495444 41.000000
1.348487 1.605293 -1.503465 36.000000
1.212276 1.462685 -1.517533 44.000000
1.445550 1.074228 -1.506022 26.000000
1.518469 1.786791 -1.506867 97.000000
1.088941 1.334720 -1.530190 19.000000
1.768324 1.310457 -1.485741 67.000000
1.971429 1.462263 -1.483240 72.000000
1.702951 1.972257 -1.494083 125.000000
1.219236 1.461914 -1.520717 54.000000
1.527742 1.786549 -1.510740 109.000000
1.450056 1.070688 -1.507330 23.000000
1.093031 1.331373 -1.530192 21.000000
1.353926 1.601760 -1.504062 39.000000
1.600469 1.184136 -1.497286 40.000000
1.097111 1.328013 -1.530193 19.000000
1.594557 1.172196 -1.488084 52.000000
1.772337 1.305026 -1.485742 81.000000
1.358834 1.597599 -1.504063 43.000000
1.452115 1.065337 -1.506024 30.000000
1.710690 1.968969 -1.495614 122.000000
1.978636 1.458223 -1.485359 67.000000
1.535395 1.784375 -1.512953 100.000000
1.221229 1.455218 -1.517536 46.000000
1.970104 1.442614 -1.475299 83.000000
1.541956 1.780914 -1.514061 98.000000
1.217202 1.441467 -1.506719 32.000000
1.459655 1.064001 -1.510600 28.000000
1.600695 1.169163 -1.490539 50.000000
1.360587 1.589766 -1.500493 26.000000
1.100707 1.324075 -1.529519 27.000000
1.783610 1.304914 -1.492036 59.000000
1.711617 1.957889 -1.491030 98.000000
1.544121 1.772411 -1.510745 108.000000
1.610023 1.168426 -1.496062 32.000000
1.780311 1.294126 -1.485744 81.000000
1.978634 1.439560 -1.478478 77.000000
1.719893 1.955209 -1.493070 102.000000
1.105239 1.321255 -1.530196 22.000000
1.223623 1.440072 -1.509266 36.000000
1.370714 1.591661 -1.506448 43.000000
1.461687 1.058629 -1.509294 32.000000
1.788261 1.291542 -1.489178 59.000000
1.110240 1.318983 -1.531549 24.000000
1.461859 1.051926 -1.506027 27.000000
1.374009 1.585630 -1.504664 35.000000
1.605279 1.157470 -1.488087 55.000000
1.978919 1.430498 -1.475302 82.000000
1.002381 1.211952 -1.555057 10.000000
1.552854 1.771418 -1.514065 117.000000
1.244124 1.455031 -1.529632 61.000000
1.728740 1.953140 -1.495620 122.000000
1.004746 1.207261 -1.552916 12.000000
1.376220 1.578384 -1.501689 39.000000
1.114760 1.316131 -1.532226 32.000000
1.610747 1.153920 -1.489929 45.000000
1.979166 1.421448 -1.472126 89.000000
1.787553 1.282698 -1.485174 72.000000
1.466310 1.048317 -1.507335 28.000000
1.241014 1.442455 -1.520088 45.000000
1.734724 1.947827 -1.495622 89.000000
1.557730 1.766022 -1.513513 102.000000
1.989040 1.419315 -1.476363 77.000000
1.463971 1.039864 -1.501453 35.000000
1.382119 1.575360 -1.502881 53.000000
1.018825 1.216484 -1.569340 7.000000
1.790145 1.276255 -1.484031 81.000000
1.553164 1.750036 -1.503561 94.000000
1.121671 1.316062 -1.536283 16.000000
1.242396 1.435149 -1.516271 39.000000
1.732638 1.933537 -1.488490 108.000000
1.614280 1.148973 -1.489930 51.000000
1.742603 1.932679 -1.492059 99.000000
1.559083 1.745883 -1.504116 95.000000
1.249842 1.434812 -1.520091 44.000000
1.619731 1.145384 -1.491771 43.000000
1.119927 1.305917 -1.528174 22.000000
1.998919 1.417134 -1.480601 59.000000
1.468390 1.036241 -1.502761 37.000000
1.795390 1.271705 -1.485176 69.000000
1.020288 1.210683 -1.565771 13.000000
1.384813 1.568707 -1.500501 47.000000
1.024453 1.208079 -1.566486 12.000000
1.255258 1.432128 -1.521365 48.000000
1.123928 1.302474 -1.528175 13.000000
1.567222 1.744185 -1.506883 85.000000
1.469085 1.029991 -1.500148 35.000000
1.386410 1.560853 -1.496931 52.000000
1.745628 1.924141 -1.489513 95.000000
1.995632 1.405617 -1.474777 80.000000
1.632279 1.146772 -1.500362 34.000000
1.797943 1.265246 -1.484033 77.000000
1.254018 1.421921 -1.514366 32.000000
1.573686 1.740602 -1.507990 97.000000
1.800473 1.258783 -1.482890 84.000000
1.996462 1.397053 -1.472130 86.000000
1.630612 1.138138 -1.495454 45.000000
1.473480 1.026345 -1.501456 27.000000
1.752686 1.920045 -1.490534 111.000000
1.133252 1.305126 -1.535611 27.000000
1.387972 1.553004 -1.493361 38.000000
1.020855 1.196432 -1.555063 8.000000
1.804327 1.253253 -1.482891 77.000000
1.135305 1.299428 -1.532909 23.000000
1.631502 1.131328 -1.493001 47.000000
1.260428 1.420369 -1.516913 40.000000
1.396500 1.552912 -1.497530 42.000000
1.474134 1.020094 -1.498842 36.000000
1.030473 1.200180 -1.564347 5.000000
1.760318 1.916557 -1.492064 104.000000
1.579581 1.736381 -1.508545 99.000000
1.401799 1.549215 -1.498127 46.000000
1.476634 1.015137 -1.498190 29.000000
1.767945 1.913040 -1.493595 105.000000
1.589974 1.737048 -1.513524 121.000000
1.808163 1.247711 -1.482892 77.000000
1.631716 1.124074 -1.489935 61.000000
1.131475 1.287105 -1.522096 12.000000
1.026800 1.188560 -1.552924 9.000000
1.265810 1.417643 -1.518188 43.000000
1.265501 1.408600 -1.512462 34.000000
1.811983 1.242157 -1.482893 71.000000
1.637111 1.120402 -1.491776 41.000000
1.135909 1.284178 -1.522774 15.000000
1.479742 1.010602 -1.498191 25.000000
1.587378 1.723596 -1.505784 82.000000
1.405461 1.543721 -1.496938 40.000000
1.777915 1.912011 -1.497163 105.000000
1.273448 1.408707 -1.516918 41.000000
1.408014 1.537036 -1.494558 34.000000
1.027134 1.174354 -1.542216 10.000000
1.815786 1.236592 -1.482895 72.000000
1.137877 1.278490 -1.520071 17.000000
1.779650 1.902156 -1.493598 104.000000
1.484713 1.007333 -1.500152 26.000000
1.636625 1.112707 -1.488096 49.000000
1.590388 1.716278 -1.503573 79.000000
1.640031 1.107680 -1.488097 57.000000
1.485916 1.001502 -1.498192 28.000000
1.787250 1.898563 -1.495129 118.000000
1.033982 1.174865 -1.547215 7.000000
1.599063 1.715040 -1.506893 86.000000
1.415453 1.535657 -1.497536 38.000000
1.277244 1.404224 -1.516283 47.000000
1.140315 1.273349 -1.518045 16.000000
1.820250 1.231475 -1.483468 66.000000
1.030593 1.163848 -1.536506 5.000000
1.604317 1.710125 -1.506895 83.000000
1.422349 1.533659 -1.499919 39.000000
1.792474 1.892447 -1.494621 133.000000
1.647355 1.105286 -1.491779 47.000000
1.824700 1.226343 -1.484041 80.000000
1.144216 1.269845 -1.518046 16.000000
1.283635 1.402569 -1.518830 53.000000
1.427597 1.529873 -1.500515 37.000000
1.827091 1.219827 -1.482898 74.000000
1.649425 1.099349 -1.490553 48.000000
1.144134 1.261971 -1.512641 12.000000
1.285313 1.395793 -1.515649 44.000000
1.799461 1.888182 -1.495642 138.000000
1.608983 1.704590 -1.506343 104.000000
1.440553 1.534255 -1.509446 51.000000
1.798087 1.875212 -1.489529 123.000000
1.158465 1.269859 -1.526836 22.000000
1.830142 1.213762 -1.482327 86.000000
1.651474 1.093411 -1.489327 57.000000
1.037716 1.157502 -1.536509 10.000000
1.283807 1.385633 -1.508650 33.000000
1.611331 1.696630 -1.503580 92.000000
1.295436 1.389568 -1.517561 52.000000
1.656799 1.089642 -1.491168 58.000000
1.159356 1.263049 -1.522781 21.000000
1.050206 1.164160 -1.550076 17.000000
1.801438 1.867213 -1.487493 113.000000
1.618836 1.694084 -1.505794 109.000000
1.438617 1.522833 -1.502304 34.000000
1.834542 1.208592 -1.482900 70.000000
1.057551 1.165066 -1.555789 5.000000
1.837555 1.202509 -1.482329 80.000000
1.291756 1.377168 -1.508017 34.000000
1.443282 1.518412 -1.502306 35.000000
1.164229 1.260566 -1.524135 27.000000
1.804156 1.858595 -1.484947 105.000000
1.658813 1.083689 -1.489942 41.000000
1.618240 1.683114 -1.500265 86.000000
1.445708 1.511659 -1.499926 35.000000
1.809850 1.853051 -1.484949 114.000000
1.658158 1.076012 -1.486262 49.000000
1.839174 1.195523 -1.480613 88.000000
1.167084 1.255911 -1.522784 27.000000
1.295975 1.373198 -1.508018 41.000000
1.056856 1.157177 -1.549365 9.000000
1.623396 1.678141 -1.500267 99.000000
1.459273 1.516460 -1.509452 52.000000
1.813110 1.845039 -1.482913 102.000000
1.627955 1.672556 -1.499716 102.000000
1.659461 1.069634 -1.484422 52.000000
1.175476 1.257156 -1.528868 13.000000
1.303910 1.373121 -1.512474 44.000000
1.060401 1.153929 -1.549366 14.000000
1.841456 1.188983 -1.479470 83.000000
1.059167 1.145545 -1.542227 15.000000
1.628406 1.662800 -1.495293 83.000000
1.846475 1.184214 -1.480615 72.000000
1.178822 1.253008 -1.528194 23.000000
1.662736 1.064538 -1.484423 52.000000
1.309720 1.370783 -1.514385 49.000000
1.818763 1.839467 -1.482914 115.000000
1.454396 1.502183 -1.499334 41.000000
1.316064 1.368977 -1.516932 55.000000
1.661998 1.056885 -1.480743 49.000000
1.638773 1.663127 -1.500272 115.000000
1.849409 1.178102 -1.480044 69.000000
1.180120 1.246716 -1.524816 14.000000
1.460122 1.498862 -1.500526 38.000000
1.059805 1.139224 -1.537944 10.000000
1.822574 1.832051 -1.481388 118.000000
1.183939 1.243089 -1.524817 27.000000
1.643868 1.658092 -1.500273 101.000000
1.063775 1.136476 -1.538659 7.000000
1.661896 1.049670 -1.477676 55.000000
1.460768 1.490367 -1.496361 34.000000
1.832454 1.830701 -1.484956 120.000000
1.314881 1.359402 -1.510569 46.000000
1.853707 1.172862 -1.480617 80.000000
1.645410 1.649508 -1.496957 104.000000
1.828889 1.815991 -1.477315 75.000000
1.664441 1.044146 -1.477064 42.000000
1.463637 1.484165 -1.494576 33.000000
1.325518 1.361978 -1.518207 58.000000
1.186213 1.237859 -1.522791 23.000000
1.856603 1.166732 -1.480046 83.000000
1.074483 1.140828 -1.549371 13.000000
1.326444 1.354606 -1.514390 54.000000
1.073146 1.132460 -1.542232 12.000000
1.669646 1.040288 -1.478905 53.000000
1.651646 1.645625 -1.498065 105.000000
1.186414 1.230510 -1.518061 23.000000
1.862261 1.162335 -1.481763 81.000000
1.469318 1.480806 -1.495768 43.000000
1.841200 1.817008 -1.482921 110.000000
1.073221 1.125626 -1.537235 13.000000
1.673501 1.035577 -1.479520 47.000000
1.473286 1.475723 -1.495174 29.000000
1.331679 1.351626 -1.515664 53.000000
1.844305 1.808945 -1.480885 98.000000
1.864425 1.155750 -1.480620 83.000000
1.179375 1.215786 -1.503868 9.000000
1.661433 1.645231 -1.502490 112.000000
1.867962 1.150025 -1.480621 82.000000
1.077643 1.123335 -1.538664 9.000000
1.678015 1.031266 -1.480747 44.000000
1.193426 1.222680 -1.517387 20.000000
1.661713 1.635459 -1.498068 102.000000
1.855400 1.808674 -1.485473 113.000000
1.483513 1.476852 -1.501129 40.000000
1.327109 1.338791 -1.505484 32.000000
1.861559 1.803571 -1.485984 111.000000
1.070838 1.109478 -1.523671 6.000000
1.492045 1.476241 -1.505297 50.000000
1.198726 1.220586 -1.519416 18.000000
1.337218 1.340705 -1.512485 44.000000
1.664336 1.628027 -1.495857 91.000000
1.681172 1.026112 -1.480748 53.000000
1.869383 1.143003 -1.478906 86.000000
1.676505 1.629869 -1.502495 103.000000
1.872881 1.137262 -1.478907 85.000000
1.689037 1.023818 -1.485044 44.000000
1.341325 1.336596 -1.512487 46.000000
1.867084 1.797851 -1.485986 122.000000
1.204543 1.218993 -1.522121 29.000000
1.495993 1.471094 -1.504703 51.000000
1.079132 1.111194 -1.530812 20.000000
1.874459 1.793895 -1.487516 129.000000
1.693523 1.019447 -1.486272 49.000000
1.345420 1.332474 -1.512488 47.000000
1.083518 1.108875 -1.532241 11.000000
1.872149 1.128966 -1.475475 90.000000
1.682098 1.625295 -1.503050 111.000000
1.207235 1.214249 -1.520771 24.000000
1.499923 1.465936 -1.504110 50.000000
1.496328 1.453507 -1.495777 42.000000
1.877715 1.124482 -1.477193 76.000000
1.214614 1.214176 -1.525503 26.000000
1.086915 1.105545 -1.532242 8.000000
1.349501 1.328340 -1.512489 50.000000
1.876832 1.785176 -1.484970 116.000000
1.685873 1.618975 -1.501945 116.000000
1.700030 1.016275 -1.489340 49.000000
1.880421 1.777639 -1.483443 108.000000
1.222004 1.214069 -1.530235 19.000000
1.087338 1.099229 -1.527959 8.000000
1.700425 1.009440 -1.486887 44.000000
1.504256 1.452250 -1.499350 49.000000
1.878337 1.117037 -1.474905 93.000000
1.353018 1.323655 -1.511854 47.000000
1.691436 1.614369 -1.502500 109.000000
1.508705 1.447628 -1.499352 60.000000
1.697592 1.610316 -1.503608 119.000000
1.088723 1.093909 -1.525104 8.000000
1.883982 1.770097 -1.481916 102.000000
1.880344 1.110434 -1.473762 92.000000
1.704875 1.005021 -1.488115 54.000000
1.226776 1.211346 -1.531588 25.000000
1.354855 1.317352 -1.509310 45.000000
1.889404 1.764308 -1.481918 118.000000
1.097045 1.095494 -1.532246 17.000000
1.509060 1.439119 -1.495186 44.000000
1.883035 1.104244 -1.473191 96.000000
1.362783 1.316931 -1.513766 56.000000
1.698881 1.601678 -1.500291 113.000000
1.227849 1.205003 -1.528210 22.000000
1.506456 1.427865 -1.488044 41.000000
1.887123 1.098875 -1.473764 77.000000
1.364029 1.310079 -1.510585 48.000000
1.231540 1.201230 -1.528211 31.000000
1.705005 1.597595 -1.501399 104.000000
1.102894 1.094580 -1.535817 15.000000
1.894177 1.757919 -1.481410 102.000000
1.105247 1.090211 -1.534390 12.000000
1.902095 1.754429 -1.483450 131.000000
1.509071 1.421587 -1.486259 39.000000
1.237873 1.200002 -1.531592 20.000000
1.709288 1.591789 -1.500847 111.000000
1.366923 1.304825 -1.509314 39.000000
1.889775 1.092668 -1.473193 73.000000
1.104574 1.082907 -1.528679 7.000000
1.522242 1.425168 -1.495190 49.000000
1.713551 1.585973 -1.500296 131.000000
1.240485 1.195179 -1.530241 22.000000
1.893830 1.087274 -1.473765 83.000000
1.907469 1.748584 -1.483451 124.000000
1.369798 1.299566 -1.508042 49.000000
1.718409 1.580708 -1.500297 113.000000
1.910277 1.740410 -1.481415 120.000000
1.114935 1.086329 -1.538677 14.000000
1.372092 1.293774 -1.506134 42.000000
1.898582 1.082272 -1.474910 65.000000
1.524840 1.418853 -1.493406 39.000000
1.242545 1.189843 -1.528215 22.000000
1.918801 1.737423 -1.483964 120.000000
1.725714 1.577672 -1.502511 127.000000
1.902607 1.076846 -1.475483 82.000000
1.379439 1.292714 -1.509954 55.000000
1.117254 1.081932 -1.537250 11.000000
1.246725 1.186531 -1.528892 30.000000
1.537461 1.421787 -1.501741 63.000000
1.383965 1.289000 -1.510592 57.000000
1.114495 1.072693 -1.528683 6.000000
1.534110 1.410012 -1.494004 40.000000
1.251433 1.183710 -1.530245 27.000000
1.922201 1.729805 -1.482437 126.000000
1.731164 1.572929 -1.503065 114.000000
1.905902 1.071004 -1.475484 71.000000
1.911327 1.066352 -1.477201 87.000000
1.253444 1.178355 -1.528219 30.000000
1.379403 1.276909 -1.501047 30.000000
1.114228 1.065893 -1.523685 8.000000
1.730407 1.562595 -1.498090 99.000000
1.928784 1.725044 -1.483458 137.000000
1.547940 1.413948 -1.503530 50.000000
1.932135 1.717406 -1.481931 131.000000
1.396970 1.285170 -1.516322 62.000000
1.745132 1.566163 -1.506939 115.000000
1.913873 1.060084 -1.476630 71.000000
1.546906 1.404343 -1.498173 42.000000
1.111385 1.056701 -1.515118 5.000000
1.258674 1.176008 -1.530248 20.000000
1.919990 1.055790 -1.478919 81.000000
1.399194 1.279320 -1.514414 46.000000
1.934812 1.709196 -1.479895 115.000000
1.743700 1.555268 -1.501411 147.000000
1.123301 1.061431 -1.527258 15.000000
1.264442 1.174140 -1.532952 18.000000
1.555392 1.403349 -1.502342 50.000000
1.557892 1.396964 -1.500558 49.000000
1.939399 1.702685 -1.479387 119.000000
1.266952 1.169258 -1.531602 27.000000
1.123992 1.055591 -1.523689 14.000000
1.752835 1.553771 -1.505283 109.000000
1.404830 1.276573 -1.516325 56.000000
1.921061 1.048714 -1.477204 85.000000
1.127226 1.052137 -1.523690 13.000000
1.951756 1.702937 -1.484993 133.000000
1.753837 1.545088 -1.501967 115.000000
1.408740 1.272257 -1.516326 58.000000
1.922107 1.041641 -1.475488 87.000000
1.269445 1.164372 -1.530251 30.000000
1.565777 1.395377 -1.504131 58.000000
1.565832 1.386847 -1.499965 48.000000
1.270281 1.157997 -1.526873 23.000000
1.957623 1.697504 -1.485504 144.000000
1.410911 1.266387 -1.514418 52.000000
1.751034 1.533128 -1.495332 108.000000
1.136627 1.054366 -1.532259 13.000000
1.926739 1.036517 -1.476633 79.000000
1.273280 1.153601 -1.526198 21.000000
1.413636 1.261028 -1.513146 50.000000
1.569475 1.381506 -1.499371 44.000000
1.139857 1.050874 -1.532260 11.000000
1.928463 1.029827 -1.475490 78.000000
1.756989 1.528840 -1.496440 106.000000
1.964127 1.692611 -1.486525 133.000000
1.757884 1.520179 -1.493123 120.000000
1.416341 1.255664 -1.511875 48.000000
1.959494 1.678198 -1.478883 108.000000
1.275166 1.148214 -1.524172 26.000000
1.143076 1.047372 -1.532261 11.000000
1.929441 1.022752 -1.473775 81.000000
1.573101 1.376157 -1.498777 57.000000
1.278133 1.143806 -1.523497 23.000000
1.141611 1.039632 -1.525836 8.000000
1.933295 1.017209 -1.474347 73.000000
1.971852 1.678300 -1.484490 127.000000
1.760641 1.513153 -1.491465 131.000000
1.420187 1.251313 -1.511876 54.000000
1.581568 1.375005 -1.502945 50.000000
1.758929 1.502345 -1.485937 151.000000
1.151044 1.041741 -1.534406 10.000000
1.977649 1.672797 -1.485001 122.000000
1.571160 1.357570 -1.488660 34.000000
1.278875 1.137438 -1.520118 33.000000
1.937861 1.012033 -1.475492 75.000000
1.421111 1.244416 -1.508695 50.000000
1.585701 1.361619 -1.498781 43.000000
1.422590 1.238030 -1.506151 49.000000
1.766711 1.499631 -1.488703 112.000000
1.157367 1.041003 -1.538691 15.000000
1.978155 1.662853 -1.481436 131.000000
1.940957 1.006083 -1.475493 79.000000
1.277930 1.129617 -1.514712 24.000000
1.161079 1.037912 -1.539406 8.000000
1.769390 1.492596 -1.487045 125.000000
1.422874 1.230641 -1.502334 47.000000
1.586809 1.354146 -1.495806 48.000000
1.982587 1.656226 -1.480928 130.000000
1.279170 1.123752 -1.512010 26.000000
1.980366 1.644102 -1.475324 111.000000
1.167933 1.037587 -1.544405 8.000000
1.283168 1.120304 -1.512687 24.000000
1.433678 1.232285 -1.509972 59.000000
1.588500 1.347198 -1.493426 48.000000
1.773962 1.487160 -1.487047 127.000000
1.778516 1.481710 -1.487048 130.000000
1.990718 1.642390 -1.479402 129.000000
1.588933 1.339219 -1.489855 39.000000
1.429223 1.220887 -1.501063 43.000000
1.283809 1.113955 -1.509309 20.000000
1.173217 1.035845 -1.547263 16.000000
1.284983 1.108092 -1.506606 23.000000
1.431784 1.215501 -1.499792 45.000000
1.172167 1.028560 -1.541551 17.000000
1.602291 1.342056 -1.498786 54.000000
1.781768 1.475186 -1.485944 126.000000
1.989085 1.630830 -1.474308 114.000000
1.595265 1.327905 -1.488072 44.000000
1.434915 1.210606 -1.499157 45.000000
1.287815 1.103666 -1.505931 22.000000
1.996083 1.626347 -1.475838 128.000000
1.174788 1.024500 -1.540838 13.000000
1.788864 1.471825 -1.488157 117.000000
1.179518 1.022261 -1.542982 9.000000
1.605534 1.328112 -1.494026 50.000000
1.795309 1.467908 -1.489817 127.000000
1.998385 1.618054 -1.473802 120.000000
1.281071 1.091138 -1.493766 9.000000
1.440400 1.207680 -1.501067 50.000000
1.184777 1.020457 -1.545839 10.000000
1.801100 1.463441 -1.490925 134.000000
1.442317 1.201778 -1.499159 40.000000
1.290616 1.092422 -1.501202 18.000000
1.600274 1.315547 -1.485098 36.000000
1.188969 1.017724 -1.547268 8.000000
1.613654 1.318235 -1.494029 52.000000
1.447784 1.198818 -1.501069 48.000000
1.806230 1.458430 -1.491479 131.000000
1.293962 1.088456 -1.501203 18.000000
1.618940 1.314288 -1.495221 56.000000
1.302964 1.089191 -1.507964 37.000000
1.453246 1.195836 -1.502980 46.000000
1.189947 1.012264 -1.544413 10.000000
1.810696 1.452881 -1.491481 115.000000
1.817755 1.449392 -1.493694 127.000000
1.306300 1.085188 -1.507965 27.000000
1.190903 1.006807 -1.541558 6.000000
1.621086 1.307805 -1.493436 51.000000
1.459900 1.193806 -1.506163 47.000000
1.313611 1.084447 -1.512697 22.000000
1.190761 1.000457 -1.537274 14.000000
1.823502 1.444840 -1.494801 129.000000
1.467155 1.192230 -1.509982 58.000000
1.627603 1.304830 -1.495818 52.000000
1.315219 1.079014 -1.510670 20.000000
1.825304 1.437182 -1.492591 113.000000
1.465995 1.183858 -1.504892 49.000000
1.625303 1.294837 -1.489867 49.000000
1.320814 1.076830 -1.513375 19.000000
1.471429 1.180798 -1.506803 45.000000
1.832333 1.433623 -1.494804 121.000000
1.629268 1.289845 -1.489868 52.000000
1.628790 1.281372 -1.485702 41.000000
1.831453 1.423914 -1.490381 115.000000
1.324685 1.073234 -1.514052 27.000000
1.474441 1.175799 -1.506167 37.000000
1.828550 1.412699 -1.484299 99.000000
1.476830 1.170314 -1.504896 42.000000
1.326821 1.068244 -1.512701 18.000000
1.644128 1.285250 -1.496419 58.000000
1.642978 1.276268 -1.491657 53.000000
1.480414 1.165777 -1.504897 42.000000
1.331246 1.065085 -1.514054 25.000000
1.831552 1.406070 -1.483195 95.000000
1.644975 1.269752 -1.489873 40.000000
1.483983 1.161230 -1.504898 42.000000
1.339134 1.064651 -1.519462 21.000000
1.840501 1.403972 -1.487067 109.000000
1.649502 1.265187 -1.490469 47.000000
1.836156 1.391792 -1.479879 95.000000
1.344712 1.062358 -1.522167 27.000000
1.493641 1.161390 -1.511263 58.000000
1.342737 1.054146 -1.516085 15.000000
1.487412 1.149281 -1.501082 42.000000
1.841750 1.387152 -1.480986 114.000000
1.659137 1.264490 -1.495828 57.000000
1.847334 1.382491 -1.482094 102.000000
1.655951 1.254074 -1.489281 48.000000
1.492770 1.146116 -1.502992 43.000000
1.349459 1.052731 -1.520141 25.000000
1.848888 1.374833 -1.479883 103.000000
1.658504 1.248023 -1.488092 36.000000
1.498123 1.142930 -1.504902 53.000000
1.353850 1.049485 -1.521494 22.000000
1.660392 1.241490 -1.486307 45.000000
1.496080 1.134148 -1.499176 37.000000
1.355894 1.044430 -1.520144 18.000000
1.853098 1.369154 -1.479884 99.000000
1.497700 1.128165 -1.497268 37.000000
1.363198 1.043389 -1.524876 18.000000
1.660963 1.234001 -1.483331 35.000000
1.870069 1.372804 -1.490393 124.000000
1.666036 1.229850 -1.484523 36.000000
1.867531 1.362164 -1.484864 99.000000
1.501155 1.123564 -1.497269 33.000000
1.368744 1.040979 -1.527580 6.000000
1.367807 1.033676 -1.522850 34.000000
1.667855 1.223312 -1.482738 44.000000
1.870350 1.355452 -1.483759 89.000000
1.512657 1.124916 -1.505543 45.000000
1.515480 1.119813 -1.504908 44.000000
1.667698 1.215358 -1.479168 45.000000
1.366838 1.026388 -1.518120 20.000000
1.873146 1.348736 -1.482654 86.000000
1.367020 1.019995 -1.514741 18.000000
1.519531 1.115613 -1.505545 45.000000
1.886775 1.349751 -1.490398 102.000000
1.667508 1.207417 -1.475597 39.000000
1.673164 1.203698 -1.477384 35.000000
1.890908 1.343956 -1.490399 104.000000
1.369550 1.015358 -1.514066 13.000000
1.520450 1.109133 -1.503001 38.000000
1.521968 1.103110 -1.501093 40.000000
1.889570 1.334314 -1.485976 100.000000
1.372065 1.010716 -1.513392 23.000000
1.680123 1.200888 -1.480362 32.000000
1.683144 1.195264 -1.479768 32.000000
1.890240 1.326124 -1.483212 96.000000
1.526600 1.099333 -1.502367 35.000000
1.372775 1.004767 -1.510689 20.000000
1.528080 1.093302 -1.500458 41.000000
1.689434 1.191940 -1.482150 26.000000
1.898407 1.323169 -1.486531 113.000000
1.690447 1.184913 -1.479770 49.000000
1.532687 1.089499 -1.501732 42.000000
1.902457 1.317338 -1.486533 117.000000
1.693414 1.179263 -1.479175 41.000000
1.903741 1.309611 -1.484322 122.000000
1.528448 1.079471 -1.494096 22.000000
1.692391 1.170872 -1.475009 41.000000
1.533018 1.075659 -1.495370 28.000000
1.906372 1.302826 -1.483217 107.000000
1.693323 1.163859 -1.472629 34.000000
1.903458 1.292305 -1.477688 97.000000
1.535678 1.070511 -1.494735 40.000000
1.537684 1.064919 -1.493463 25.000000
1.908106 1.286923 -1.478242 93.000000
1.698880 1.160013 -1.474416 39.000000
1.915511 1.283375 -1.481008 108.000000
1.542854 1.061503 -1.495373 45.000000
1.707093 1.157942 -1.478585 43.000000
1.549932 1.059366 -1.499193 55.000000
1.704631 1.148672 -1.473228 36.000000
1.915967 1.275190 -1.478244 96.000000
1.918479 1.268390 -1.477139 91.000000
1.707479 1.142990 -1.472633 38.000000
1.548700 1.051583 -1.494739 50.000000
1.549357 1.045108 -1.492194 30.000000
1.927242 1.265689 -1.481012 104.000000
1.710308 1.137303 -1.472039 33.000000
1.936007 1.262947 -1.484884 118.000000
1.726546 1.140435 -1.483351 56.000000
1.557691 1.043771 -1.497286 43.000000
1.939873 1.257001 -1.484885 113.000000
1.717254 1.126786 -1.472041 44.000000
1.562816 1.040264 -1.499197 49.000000
1.936706 1.246548 -1.479356 87.000000
1.566000 1.035464 -1.499198 45.000000
1.718681 1.120201 -1.470256 33.000000
1.565941 1.028545 -1.496016 32.000000
1.941927 1.241495 -1.480463 86.000000
1.722110 1.114922 -1.470257 39.000000
1.725523 1.109633 -1.470258 35.000000
1.947840 1.236866 -1.482123 101.000000
1.574266 1.027094 -1.501109 45.000000
1.958681 1.235315 -1.487655 106.000000
1.738413 1.110367 -1.478594 48.000000
1.575465 1.021006 -1.499200 48.000000
1.740453 1.104170 -1.477404 44.000000
1.949031 1.220922 -1.477148 82.000000
1.579240 1.016583 -1.499838 54.000000
1.959850 1.219324 -1.482679 102.000000
1.579097 1.009663 -1.496657 49.000000
1.739748 1.096264 -1.473833 41.000000
1.958615 1.210249 -1.478809 90.000000
1.743103 1.090921 -1.473834 36.000000
1.583492 1.005637 -1.497930 53.000000
1.750542 1.088104 -1.477407 41.000000
1.967295 1.207275 -1.482682 105.000000
1.752503 1.081886 -1.476218 41.000000
1.972415 1.202098 -1.483789 109.000000
1.966817 1.190450 -1.476600 94.000000
1.763360 1.081107 -1.482767 44.000000
1.966170 1.181843 -1.473283 86.000000
1.759109 1.071112 -1.476220 38.000000
1.971220 1.176656 -1.474390 84.000000
1.762387 1.065710 -1.476220 36.000000
1.764959 1.059885 -1.475626 36.000000
1.981278 1.174414 -1.479369 114.000000
1.974090 1.162011 -1.471074 99.000000
1.768202 1.054465 -1.475627 34.000000
1.768660 1.047403 -1.473247 33.000000
1.983407 1.159301 -1.475499 109.000000
1.768398 1.039943 -1.470271 35.000000
1.986954 1.153210 -1.475500 108.000000
1.984702 1.143792 -1.471077 101.000000
1.786170 1.042988 -1.482774 47.000000
1.771962 1.027467 -1.467891 39.000000
1.987478 1.137284 -1.470525 87.000000
1.990958 1.131181 -1.470526 93.000000
1.779987 1.024820 -1.472060 45.000000
1.782424 1.018957 -1.471465 43.000000
1.772248 1.005978 -1.460155 36.000000
1.774626 1.000143 -1.459561 39.000000
1.788217 1.000554 -1.468491 28.000000
2.285478 6.949926 -1.498482 13.000000
2.348617 6.997001 -1.512103 12.000000
2.339301 6.898937 -1.491916 12.000000
2.364893 6.904687 -1.494810 13.000000
2.385107 6.894625 -1.494201 11.000000
2.402056 6.875264 -1.491531 8.000000
2.448794 6.873300 -1.494435 21.000000
2.465898 6.854703 -1.491971 14.000000
2.503609 6.893095 -1.502285 19.000000
2.527440 6.892732 -1.503944 13.000000
2.532620 6.841810 -1.494266 15.000000
2.555996 6.840424 -1.495718 12.000000
2.592845 6.874669 -1.505208 8.000000
2.597574 6.823695 -1.495530 11.000000
2.624460 6.831223 -1.499043 6.000000
2.634094 6.793940 -1.492457 18.000000
2.661340 6.802229 -1.496176 13.000000
2.674656 6.774916 -1.491857 19.000000
2.694706 6.764859 -1.491453 10.000000
2.700861 6.720238 -1.483218 19.000000
2.725877 6.722802 -1.485700 16.000000
2.749452 6.721653 -1.487358 10.000000
2.783864 6.746656 -1.494994 9.000000
2.760582 6.632375 -1.470886 15.000000
2.800225 6.669892 -1.481407 16.000000
2.790931 6.590978 -1.465339 12.000000
2.834186 6.636383 -1.477715 14.000000
2.824359 6.557549 -1.461646 14.000000
2.888102 6.649384 -1.484741 13.000000
2.878277 6.571467 -1.468878 11.000000
2.895265 6.555443 -1.467238 18.000000
2.912977 6.541165 -1.466010 15.000000
2.956267 6.583977 -1.477974 8.000000
2.970403 6.561502 -1.474891 17.000000
2.969811 6.506953 -1.464387 7.000000
2.985673 6.488919 -1.462334 19.000000
2.004763 6.302420 -1.519665 24.000000
2.023792 6.295312 -1.519444 14.000000
2.039182 6.277043 -1.516463 19.000000
2.059039 6.272605 -1.516932 18.000000
2.077354 6.263487 -1.516250 21.000000
2.081385 6.211876 -1.504991 22.000000
2.117311 6.255229 -1.517417 14.000000
2.127978 6.223844 -1.511217 24.000000
2.140063 6.197052 -1.506166 26.000000
2.168376 6.217099 -1.512844 13.000000
2.183231 6.198485 -1.509863 18.000000
2.194399 6.169755 -1.504352 20.000000
2.222872 6.189549 -1.511029 21.000000
2.232217 6.156173 -1.504369 20.000000
2.252434 6.152949 -1.505297 12.000000
2.271640 6.146921 -1.505536 24.000000
2.284697 6.124424 -1.501634 24.000000
2.295234 6.095531 -1.496123 23.000000
2.294534 6.037527 -1.483253 25.000000
2.337132 6.093141 -1.499130 21.000000
2.357223 6.089570 -1.500058 26.000000
2.390080 6.118560 -1.509265 11.000000
2.382394 6.044213 -1.492255 29.000000
2.412092 6.064902 -1.499393 20.000000
2.423067 6.038509 -1.494571 24.000000
2.442680 6.033751 -1.495269 19.000000
2.467076 6.040639 -1.498958 21.000000
2.484856 6.031242 -1.498506 13.000000
6.669415 -2.005872 0.295902 112.000000
6.638526 -2.000309 0.634783 105.000000
6.626120 -2.023754 0.975858 54.000000
6.639982 -2.022984 0.635480 122.000000
6.665142 -2.026902 0.295983 125.000000
6.619880 -2.044069 0.975863 104.000000
6.643267 -2.046273 0.636349 115.000000
6.662714 -2.048512 0.296138 117.000000
6.617361 -2.065546 0.976409 125.000000
6.660215 -2.070125 0.296294 99.000000
6.645519 -2.069306 0.637131 123.000000
6.649593 -2.092968 0.638086 143.000000
