# .PCD v0.7 - Point Cloud Data file format
VERSION 0.7
FIELDS x y z intensity
SIZE 4 4 4 4
TYPE F F F F
COUNT 1 1 1 1
WIDTH 49
HEIGHT 1
VIEWPOINT 0 0 0 1 0 0 0
POINTS 49
DATA ascii
-4.982407 11.471523 3.669202 5.000000
-4.932749 11.453255 3.658567 10.000000
-4.849643 11.453260 3.649036 8.000000
-4.807416 11.451273 3.643711 9.000000
-4.722403 11.445068 3.632502 11.000000
-4.681812 11.446179 3.628296 7.000000
-4.638009 11.439143 3.621573 11.000000
-4.598950 11.443526 3.618483 9.000000
-4.521943 11.454576 3.613143 15.000000
-4.439069 11.449894 3.603051 7.000000
-4.399785 11.452711 3.599683 6.000000
-4.363601 11.463471 3.598829 7.000000
-4.320613 11.456150 3.592386 6.000000
-4.288469 11.477453 3.594884 19.000000
-4.247900 11.476156 3.590398 6.000000
-4.206056 11.471113 3.584794 9.000000
-4.161004 11.456897 3.576396 7.000000
-4.086110 11.469564 3.572451 7.000000
-4.044509 11.463945 3.566848 6.000000
-4.004248 11.461804 3.562361 4.000000
-4.984720 11.530115 3.401496 21.000000
-4.940955 11.525829 3.395777 17.000000
-4.896131 11.518716 3.389279 12.000000
-4.853645 11.516778 3.384336 14.000000
-4.812706 11.518253 3.380431 16.000000
-4.771435 11.518693 3.376266 21.000000
-4.555603 11.060901 3.888788 4.000000
-4.732772 11.525242 3.373917 15.000000
-4.689384 11.520033 3.368196 19.000000
-4.573048 11.200842 3.932687 7.000000
-4.652573 11.530789 3.367142 12.000000
-4.506356 11.234007 3.934496 4.000000
-4.620399 11.553088 3.369458 17.000000
-4.590266 11.580685 3.373330 10.000000
-4.555067 11.595619 3.373572 9.000000
-4.521919 11.615848 3.375369 14.000000
-4.490080 11.639586 3.378203 12.000000
-4.456071 11.657825 3.379482 20.000000
-4.279889 11.265273 3.917199 6.000000
-4.417548 11.664222 3.377391 17.000000
-4.384114 11.684057 3.379188 17.000000
-4.345219 11.689311 3.376838 16.000000
-4.198390 11.258340 3.905803 6.000000
-4.313337 11.713470 3.379931 15.000000
-4.269773 11.705785 3.373952 18.000000
-4.063480 11.210625 3.876273 6.000000
-4.231215 11.711569 3.371860 11.000000
-4.150891 11.713653 3.365086 7.000000
-4.100873 11.686235 3.353664 6.000000
