# .PCD v0.7 - Point Cloud Data file format
VERSION 0.7
FIELDS x y z intensity
SIZE 4 4 4 4
TYPE F F F F
COUNT 1 1 1 1
WIDTH 212
HEIGHT 1
VIEWPOINT 0 0 0 1 0 0 0
POINTS 212
DATA ascii
6.181303 4.910642 1.907649 19.000000
6.187177 4.884423 1.904869 28.000000
6.223468 4.929141 1.112862 10.000000
6.227408 4.923341 1.509581 28.000000
6.224546 4.898994 1.110432 18.000000
6.222386 4.888421 1.504819 23.000000
6.212846 4.873831 1.908104 15.000000
6.213959 4.843982 1.903936 34.000000
6.235029 4.867496 1.504266 12.000000
6.238766 4.879267 1.110293 17.000000
6.261582 4.857389 1.507007 16.000000
6.263874 4.868013 1.112042 19.000000
6.258780 4.848142 1.912955 22.000000
6.285957 4.838418 1.916652 13.000000
6.288972 4.856652 1.113790 17.000000
6.278789 4.839961 1.507553 18.000000
6.340946 4.849857 1.928678 11.000000
6.307653 4.831442 1.510843 17.000000
6.310915 4.842769 1.115000 14.000000
6.353316 4.844422 1.119713 17.000000
6.355296 4.837086 1.518526 12.000000
6.380577 4.849228 1.936077 19.000000
6.387099 4.839276 1.122944 23.000000
6.405385 4.844262 1.526759 11.000000
6.442773 4.865408 1.950185 8.000000
6.442218 4.841134 1.531880 8.000000
6.433574 4.843507 1.128332 12.000000
6.476342 4.859641 1.955734 17.000000
6.508375 4.852550 1.960820 9.000000
6.481722 4.848684 1.133989 19.000000
6.489331 4.845472 1.539380 9.000000
6.542770 4.847047 1.966599 6.000000
6.519954 4.837264 1.543037 10.000000
6.514854 4.842378 1.137085 25.000000
6.546630 4.825994 1.545778 16.000000
6.540836 4.830615 1.138968 24.000000
6.559176 4.828109 1.967058 17.000000
6.563783 4.807634 1.546324 21.000000
6.558820 4.812874 1.139504 21.000000
6.571601 4.806243 1.966361 27.000000
6.579296 4.788056 1.546504 21.000000
6.578357 4.796237 1.140309 26.000000
6.575297 4.778055 1.963119 19.000000
6.585191 4.761514 1.544487 16.000000
6.586621 4.771383 1.139227 19.000000
6.582826 4.752737 1.961033 15.000000
6.588681 4.726284 1.958485 11.000000
6.590188 4.734407 1.542287 26.000000
6.593186 4.745367 1.137875 16.000000
6.611081 4.718741 1.543747 6.000000
6.605295 4.723391 1.137468 12.000000
6.592851 4.698709 1.955474 13.000000
6.597708 4.671716 1.952694 16.000000
6.600669 4.680806 1.538070 22.000000
6.614100 4.699088 1.136521 26.000000
6.616344 4.670204 1.134496 20.000000
6.600074 4.643058 1.949221 20.000000
6.614194 4.659970 1.537884 14.000000
6.621717 4.643627 1.133010 17.000000
6.616379 4.631201 1.535135 29.000000
6.595151 4.609412 1.943665 57.000000
6.616836 4.601340 1.532020 78.000000
6.651377 4.634058 1.135567 45.000000
6.606863 4.587496 1.942968 71.000000
6.653342 4.605172 1.133542 78.000000
6.615301 4.563341 1.941345 81.000000
6.622833 4.575432 1.530187 74.000000
6.630354 4.550644 1.528719 72.000000
6.659275 4.579126 1.132191 72.000000
6.622849 4.538627 1.939491 71.000000
6.635350 4.524190 1.526703 78.000000
6.627896 4.512267 1.936943 77.000000
6.661838 4.550850 1.130301 81.000000
6.629621 4.483738 1.933470 57.000000
6.661831 4.520932 1.128006 83.000000
6.638618 4.496646 1.524320 61.000000
6.631233 4.455241 1.929997 79.000000
6.661704 4.491056 1.125712 85.000000
6.649118 4.474066 1.523585 50.000000
6.630306 4.425155 1.925830 81.000000
6.647285 4.443266 1.520104 66.000000
6.657339 4.458467 1.122743 73.000000
6.654488 4.427044 1.120045 99.000000
6.630067 4.395655 1.921894 85.000000
6.649420 4.415239 1.517539 60.000000
6.649805 4.386158 1.514608 66.000000
6.626460 4.364058 1.917033 66.000000
6.653986 4.397321 1.117750 83.000000
6.650052 4.365467 1.114917 94.000000
6.625978 4.334654 1.913097 75.000000
6.645963 4.354422 1.510761 66.000000
6.623747 4.304235 1.908699 78.000000
6.639517 4.321141 1.506366 83.000000
6.647645 4.334761 1.112353 95.000000
6.633755 4.288475 1.502153 76.000000
6.617305 4.271231 1.903144 85.000000
6.646775 4.305189 1.110059 95.000000
6.611542 4.238832 1.897820 79.000000
6.647453 4.276735 1.108034 106.000000
6.631991 4.258543 1.498856 71.000000
6.631764 4.229718 1.495925 94.000000
6.647184 4.247784 1.105875 83.000000
6.604002 4.205463 1.892034 92.000000
6.609473 4.180505 1.889949 87.000000
6.650983 4.221531 1.104390 86.000000
6.634744 4.203041 1.493726 92.000000
6.637622 4.176384 1.491526 83.000000
6.607440 4.150894 1.885782 89.000000
6.649654 4.192123 1.102096 71.000000
6.640400 4.149750 1.489327 71.000000
6.610239 4.124425 1.883003 79.000000
6.656605 4.168024 1.101149 89.000000
6.658423 4.140780 1.099395 85.000000
6.614592 4.099003 1.880687 98.000000
6.642241 4.122620 1.486945 99.000000
6.640632 4.093453 1.483831 86.000000
6.614708 4.071043 1.877214 73.000000
6.658451 4.112523 1.097370 88.000000
6.656679 4.083269 1.095076 79.000000
6.638068 4.063822 1.480534 71.000000
6.620526 4.046674 1.875361 94.000000
6.640424 4.037310 1.478335 84.000000
6.656482 4.055095 1.093052 107.000000
6.622099 4.019783 1.872351 83.000000
6.656176 4.026961 1.091028 76.000000
6.638473 4.008281 1.475222 73.000000
6.197050 4.947954 1.334410 16.000000
6.203177 4.958117 1.739934 17.000000
6.190788 4.917191 1.732355 15.000000
6.202920 4.921567 1.332462 27.000000
6.202774 4.895757 1.731510 15.000000
6.207911 4.894579 1.330351 17.000000
6.226006 4.877947 1.330995 17.000000
6.221611 4.879723 1.732558 12.000000
6.252624 4.867913 1.333422 12.000000
6.245036 4.867223 1.734868 21.000000
6.279240 4.857763 1.335849 13.000000
6.265350 4.852232 1.736337 23.000000
6.302722 4.845091 1.337627 13.000000
6.306558 4.853251 1.743487 7.000000
6.331515 4.841599 1.746218 12.000000
6.352072 4.852075 1.344753 9.000000
6.385273 4.851709 1.756734 7.000000
6.385798 4.846877 1.348638 16.000000
6.415611 4.838549 1.351713 12.000000
6.430565 4.855060 1.764935 9.000000
6.467333 4.851729 1.770822 10.000000
6.462021 4.842503 1.358191 17.000000
6.508061 4.851138 1.777761 12.000000
6.494265 4.835615 1.361752 13.000000
6.536273 4.841038 1.781334 19.000000
6.522559 4.825643 1.364503 27.000000
6.556606 4.825019 1.782803 12.000000
6.534946 4.803861 1.364012 11.000000
6.571377 4.804886 1.782799 21.000000
6.560015 4.791354 1.366115 25.000000
6.583713 4.782983 1.782164 21.000000
6.573884 4.770630 1.365950 22.000000
6.589632 4.756477 1.779846 23.000000
6.584485 4.747559 1.365135 18.000000
6.598629 4.732256 1.778369 19.000000
6.594203 4.723894 1.364159 16.000000
6.600373 4.702923 1.774999 18.000000
6.610272 4.704788 1.364480 13.000000
6.620645 4.681642 1.363666 17.000000
6.608383 4.678140 1.773313 16.000000
6.600306 4.642110 1.767418 45.000000
6.633360 4.660178 1.363338 35.000000
6.627389 4.625699 1.359284 97.000000
6.600086 4.611771 1.763627 73.000000
6.610186 4.588719 1.762572 79.000000
6.635870 4.601415 1.358146 105.000000
6.612155 4.560102 1.759412 87.000000
6.639387 4.573766 1.356036 81.000000
6.615626 4.532620 1.756674 86.000000
6.642797 4.546138 1.353926 94.000000
6.635488 4.511326 1.349709 92.000000
6.618181 4.504611 1.753725 78.000000
6.635391 4.481568 1.346951 84.000000
6.614147 4.472250 1.749093 74.000000
6.607540 4.438323 1.743830 106.000000
6.625337 4.445260 1.342249 116.000000
6.608109 4.409359 1.740460 90.000000
6.630729 4.419448 1.340625 105.000000
6.629440 4.389289 1.337705 107.000000
6.609377 4.380973 1.737301 87.000000
6.632978 4.362431 1.335757 101.000000
6.608084 4.351009 1.733510 81.000000
6.636413 4.335593 1.333809 127.000000
6.605851 4.320559 1.729510 124.000000
6.639746 4.308774 1.331862 114.000000
6.607593 4.292826 1.726561 89.000000
6.605941 4.263003 1.722771 91.000000
6.641317 4.280908 1.329590 97.000000
6.639455 4.250946 1.326670 91.000000
6.608284 4.235867 1.720033 100.000000
6.609699 4.208232 1.717084 91.000000
6.639138 4.222094 1.324075 107.000000
6.611006 4.180629 1.714136 86.000000
6.631195 4.188544 1.320021 109.000000
6.613034 4.153576 1.711398 89.000000
6.628963 4.158752 1.317101 105.000000
6.637500 4.135791 1.316287 83.000000
6.618278 4.128619 1.709501 84.000000
6.620936 4.102125 1.706973 87.000000
6.631691 4.103996 1.312720 99.000000
6.623495 4.075654 1.704446 103.000000
6.630795 4.075375 1.310125 92.000000
6.623887 4.043200 1.306395 123.000000
6.625953 4.049206 1.701918 78.000000
6.624968 4.020754 1.698549 108.000000
6.626130 4.016729 1.304447 105.000000
