# .PCD v0.7 - Point Cloud Data file format
VERSION 0.7
FIELDS x y z intensity
SIZE 4 4 4 4
TYPE F F F F
COUNT 1 1 1 1
WIDTH 62
HEIGHT 1
VIEWPOINT 0 0 0 1 0 0 0
POINTS 62
DATA ascii
-6.104712 -6.995605 8.490712 6.000000
-6.128935 -6.936966 8.465108 9.000000
-6.151170 -6.919234 8.466455 6.000000
-6.200430 -6.889049 8.475888 9.000000
-6.230959 -6.880401 8.488690 7.000000
-6.241093 -6.849233 8.473867 10.000000
-6.259581 -6.827328 8.470497 6.000000
-6.296329 -6.783372 8.463760 7.000000
-6.315094 -6.761862 8.461064 4.000000
-6.343904 -6.751072 8.471845 9.000000
-6.360527 -6.727280 8.466455 7.000000
-6.385210 -6.712017 8.471845 6.000000
-6.403729 -6.690259 8.469149 6.000000
-6.430375 -6.676969 8.477234 4.000000
-6.438491 -6.644470 8.461063 8.000000
-6.481728 -6.607475 8.464432 14.000000
-6.499893 -6.585453 8.461737 9.000000
-6.520336 -6.525578 8.436132 7.000000
-6.560255 -6.485445 8.436131 8.000000
-6.633982 -6.438686 8.454323 6.000000
-6.649452 -6.414197 8.448932 6.000000
-6.664300 -6.389163 8.442867 6.000000
-6.695637 -6.379902 8.457690 4.000000
-6.713034 -6.357296 8.454995 13.000000
-6.717443 -6.322487 8.436129 9.000000
-6.749218 -6.313460 8.451626 13.000000
-6.762605 -6.287188 8.444213 10.000000
-6.773180 -6.258385 8.433433 5.000000
-6.854959 -6.179742 8.440168 9.000000
-6.875538 -6.160161 8.442190 7.000000
-6.921506 -6.125201 8.452295 11.000000
-6.960794 -6.121993 8.477227 5.000000
-6.962858 -6.086012 8.457014 8.000000
-6.026242 -6.370234 8.554612 5.000000
-6.032409 -6.337701 8.535787 5.000000
-6.054307 -6.321747 8.539274 5.000000
-6.767596 -6.984405 8.540560 11.000000
-6.079150 -6.308813 8.546945 9.000000
-6.801606 -6.976527 8.556373 4.000000
-6.813493 -6.945961 8.544514 4.000000
-6.096982 -6.288586 8.544853 7.000000
-6.822083 -6.912177 8.528703 10.000000
-6.106733 -6.260104 8.531606 7.000000
-6.846972 -6.894945 8.533316 4.000000
-6.127921 -6.243381 8.534395 4.000000
-6.140498 -6.217921 8.525331 7.000000
-6.878736 -6.884541 8.546494 8.000000
-6.889155 -6.852795 8.533317 11.000000
-6.910685 -6.832151 8.533977 14.000000
-6.164849 -6.166440 8.506505 5.000000
-6.921414 -6.800901 8.521460 5.000000
-6.187300 -6.151029 8.511387 8.000000
-6.187778 -6.113887 8.486284 5.000000
-6.950326 -6.787510 8.531343 8.000000
-6.973281 -6.768246 8.533978 8.000000
-6.243145 -6.093309 8.510691 6.000000
-6.994556 -6.747338 8.534637 15.000000
-6.262327 -6.074623 8.511388 6.000000
-6.281969 -6.056372 8.512783 8.000000
-6.308290 -6.044500 8.523243 10.000000
-6.317978 -6.016716 8.511389 6.000000
-6.339535 -6.000256 8.515574 7.000000
