# .PCD v0.7 - Point Cloud Data file format
VERSION 0.7
FIELDS x y z intensity
SIZE 4 4 4 4
TYPE F F F F
COUNT 1 1 1 1
WIDTH 123
HEIGHT 1
VIEWPOINT 0 0 0 1 0 0 0
POINTS 123
DATA ascii
6.554968 -3.012018 2.125333 84.000000
6.558767 -3.038161 2.129525 89.000000
6.560726 -3.063543 2.133159 100.000000
6.393171 -3.018727 2.469723 28.000000
6.560854 -3.088149 2.136235 97.000000
6.452557 -3.056314 2.897580 5.000000
6.461571 -3.084881 2.905793 7.000000
6.569569 -3.116899 2.142102 90.000000
6.408632 -3.050097 2.479196 20.000000
6.482176 -3.119162 2.919229 8.000000
6.401801 -3.070965 2.480182 21.000000
6.568639 -3.141176 2.144899 83.000000
6.415327 -3.101690 2.489002 11.000000
6.565892 -3.164643 2.147138 91.000000
6.485934 -3.145504 2.925204 7.000000
6.470417 -3.162532 2.922599 5.000000
6.559606 -3.186445 2.148260 81.000000
6.363291 -3.100658 2.472686 27.000000
6.389385 -3.137653 2.486403 9.000000
6.556699 -3.209926 2.150499 81.000000
6.549404 -3.231296 2.151343 81.000000
6.361936 -3.148435 2.479554 11.000000
6.346324 -3.164981 2.477276 20.000000
6.543759 -3.253505 2.152745 78.000000
6.465928 -3.234381 2.933810 10.000000
6.545766 -3.279582 2.156658 76.000000
6.340806 -3.186553 2.478914 6.000000
6.463431 -3.257955 2.937174 9.000000
6.542532 -3.303105 2.158897 84.000000
6.309916 -3.195315 2.470759 12.000000
6.467468 -3.284903 2.943522 6.000000
6.542639 -3.328379 2.162252 106.000000
6.291663 -3.210359 2.467501 12.000000
6.452962 -3.327490 2.946147 5.000000
6.270854 -3.224025 2.463264 18.000000
6.537524 -3.351059 2.163933 86.000000
6.445192 -3.348549 2.947273 8.000000
6.531478 -3.373298 2.165335 75.000000
6.258414 -3.241940 2.462291 12.000000
6.317157 -3.296968 2.489067 34.000000
6.527913 -3.396860 2.167574 69.000000
6.520012 -3.418204 2.168418 61.000000
6.233383 -3.277632 2.460345 9.000000
6.427806 -3.389752 2.948778 7.000000
6.251698 -3.311773 2.471451 17.000000
6.419014 -3.410321 2.949531 8.000000
6.525629 -3.446704 2.173727 73.000000
6.401975 -3.426492 2.946553 7.000000
6.244010 -3.332267 2.472437 15.000000
6.370895 -3.390045 2.126294 16.000000
6.330839 -3.393697 2.116534 5.000000
6.233757 -3.351403 2.472443 15.000000
6.246719 -3.383106 2.481590 21.000000
6.267015 -3.418993 2.493676 20.000000
6.287148 -3.455037 2.505761 10.000000
6.300502 -3.487575 2.515235 9.000000
6.447625 -3.558785 2.169302 38.000000
6.358301 -3.545074 2.542338 3.000000
6.562582 -3.648514 2.211168 78.000000
6.554708 -3.670501 2.212291 106.000000
6.398497 -3.593245 2.562586 12.000000
6.458203 -3.652860 2.590669 10.000000
6.545926 -3.692004 2.213135 95.000000
6.411646 -3.652540 2.576638 8.000000
6.546258 -3.718703 2.217050 81.000000
6.541486 -3.742578 2.219290 82.000000
6.389749 -3.666075 2.572402 8.000000
6.554103 -3.776524 2.227392 48.000000
6.539162 -3.794682 2.226284 59.000000
6.542413 -3.823440 2.231315 74.000000
6.545549 -3.852254 2.236347 73.000000
6.544439 -3.878676 2.239983 63.000000
6.561371 -3.915951 2.249759 100.000000
6.561672 -3.943476 2.253953 95.000000
6.547899 -3.962590 2.253404 63.000000
6.056195 -3.700630 2.479428 6.000000
6.546371 -3.989149 2.257040 71.000000
6.122913 -3.861203 2.132890 26.000000
6.098065 -3.871733 2.128432 25.000000
6.108815 -3.904896 2.136254 29.000000
6.098420 -3.924654 2.136820 42.000000
6.066200 -3.930292 2.129851 35.000000
6.074222 -3.961992 2.136836 37.000000
6.002317 -3.925475 2.505297 5.000000
6.053207 -3.974808 2.133774 30.000000
6.024159 -3.982239 2.127920 35.000000
6.000719 -3.993252 2.124021 29.000000
6.432157 -3.299450 2.358337 19.000000
6.435528 -3.326164 2.363253 21.000000
6.478459 -3.373614 2.382586 39.000000
6.444485 -3.381074 2.374004 45.000000
6.365101 -3.364315 2.348855 9.000000
6.331095 -3.471612 2.355640 13.000000
6.495317 -3.587754 2.420070 54.000000
6.458503 -3.593301 2.410568 42.000000
6.450767 -3.614957 2.411802 43.000000
6.408988 -3.617399 2.400458 29.000000
6.418756 -3.638412 2.819003 4.000000
6.416883 -3.647870 2.407521 13.000000
6.438688 -3.686470 2.419800 12.000000
6.447953 -3.718100 2.427476 12.000000
6.471072 -3.757955 2.440369 6.000000
6.419785 -3.717495 2.834242 5.000000
6.468545 -3.783077 2.443750 6.000000
6.447642 -3.786676 2.856552 7.000000
6.443790 -3.795164 2.438849 9.000000
6.437026 -3.817827 2.440697 11.000000
6.457721 -3.819302 2.866114 10.000000
6.460406 -3.858559 2.453896 7.000000
6.482271 -3.887735 2.887362 6.000000
6.402425 -3.877391 2.441025 14.000000
6.288018 -3.817170 2.001369 61.000000
6.491921 -3.920667 2.896925 8.000000
6.450304 -3.922564 2.883838 6.000000
6.430302 -3.921315 2.456065 8.000000
6.360308 -3.887871 2.027786 61.000000
6.465347 -3.958951 2.895878 7.000000
6.360684 -3.914963 2.031677 53.000000
6.401214 -3.930552 2.449630 9.000000
6.404623 -3.948794 2.874297 5.000000
6.410974 -3.963694 2.457920 5.000000
6.400398 -3.984347 2.458541 8.000000
6.330323 -3.956750 2.852015 9.000000
