# .PCD v0.7 - Point Cloud Data file format
VERSION 0.7
FIELDS x y z intensity
SIZE 4 4 4 4
TYPE F F F F
COUNT 1 1 1 1
WIDTH 310
HEIGHT 1
VIEWPOINT 0 0 0 1 0 0 0
POINTS 310
DATA ascii
4.231631 -0.011520 -0.217791 12.000000
4.262824 -0.008666 -0.641285 37.000000
4.116463 -0.009829 -0.412855 4.000000
4.225586 -0.024467 -0.217425 9.000000
4.230193 -0.021586 -0.636067 47.000000
4.140270 -0.022578 -0.415475 8.000000
4.135211 -0.035238 -0.414926 9.000000
4.226490 -0.037438 -0.217483 12.000000
4.244918 -0.034679 -0.638435 50.000000
4.140054 -0.047978 -0.415469 5.000000
4.243804 -0.047690 -0.638274 51.000000
4.227354 -0.050413 -0.217541 12.000000
4.171692 -0.061133 -0.418963 8.000000
4.206220 -0.063073 -0.216269 36.000000
4.226854 -0.060473 -0.635584 71.000000
4.209000 -0.076028 -0.216447 56.000000
4.174467 -0.073982 -0.419288 9.000000
4.253306 -0.073893 -0.639848 37.000000
4.272804 -0.087338 -0.643006 25.000000
4.187140 -0.087051 -0.420706 18.000000
4.208747 -0.088939 -0.216444 62.000000
4.170954 -0.099520 -0.418955 18.000000
4.306079 -0.101223 -0.648377 21.000000
4.204463 -0.101753 -0.216200 67.000000
4.168642 -0.112261 -0.418733 23.000000
4.204131 -0.114650 -0.216197 76.000000
4.184337 -0.111242 -0.628934 45.000000
4.169171 -0.123643 -0.626560 46.000000
4.162316 -0.124871 -0.418074 18.000000
4.202762 -0.127515 -0.216133 81.000000
4.187386 -0.139911 -0.215224 124.000000
4.162851 -0.136240 -0.625609 43.000000
4.158933 -0.137541 -0.417744 15.000000
4.137744 -0.148134 -0.621655 53.000000
4.185940 -0.152719 -0.215161 102.000000
4.149551 -0.149978 -0.416757 24.000000
4.145099 -0.162551 -0.416317 20.000000
4.260607 -0.165580 -0.641408 21.000000
4.185452 -0.165558 -0.215158 122.000000
4.183927 -0.178354 -0.215094 118.000000
4.122946 -0.172941 -0.619436 66.000000
4.118759 -0.174182 -0.413473 68.000000
4.130122 -0.187352 -0.414782 113.000000
4.180369 -0.191051 -0.214910 118.000000
4.128314 -0.185852 -0.620382 92.000000
4.170790 -0.203439 -0.214364 153.000000
4.129528 -0.200020 -0.414779 116.000000
4.133643 -0.198798 -0.621327 107.000000
4.122939 -0.212381 -0.414120 109.000000
4.164165 -0.215923 -0.213998 164.000000
4.134986 -0.211577 -0.621640 94.000000
4.138262 -0.224473 -0.622269 115.000000
4.160493 -0.228532 -0.213814 121.000000
4.121275 -0.224974 -0.414008 114.000000
4.137555 -0.237166 -0.622266 104.000000
4.158776 -0.241236 -0.213750 158.000000
4.118581 -0.237501 -0.413786 138.000000
4.158016 -0.253992 -0.213747 130.000000
4.117833 -0.250134 -0.413783 133.000000
4.142722 -0.250213 -0.623212 80.000000
4.159210 -0.266872 -0.213865 138.000000
4.112087 -0.262449 -0.413234 81.000000
4.144891 -0.263106 -0.623683 78.000000
4.169327 -0.280362 -0.214527 167.000000
4.211436 -0.281731 -0.424267 30.000000
4.135198 -0.275232 -0.622257 82.000000
4.204602 -0.294234 -0.423608 16.000000
4.179400 -0.293917 -0.215188 212.000000
4.143200 -0.288531 -0.623677 76.000000
4.231439 -0.309150 -0.426665 8.000000
4.155098 -0.302166 -0.625728 66.000000
4.179474 -0.306808 -0.215245 212.000000
4.211639 -0.320700 -0.424585 17.000000
4.163584 -0.318490 -0.214336 154.000000
4.148245 -0.314464 -0.624777 69.000000
4.213608 -0.333852 -0.424910 14.000000
4.134463 -0.326182 -0.622719 92.000000
4.157612 -0.330866 -0.214031 151.000000
4.158567 -0.343781 -0.214149 119.000000
4.151158 -0.340310 -0.625561 86.000000
4.210583 -0.346613 -0.424688 22.000000
4.212081 -0.358296 -0.635514 55.000000
4.213462 -0.359865 -0.425122 11.000000
4.156498 -0.356451 -0.214085 131.000000
4.222766 -0.372252 -0.637407 50.000000
4.156380 -0.369287 -0.214143 82.000000
4.229171 -0.374272 -0.426977 5.000000
4.220084 -0.386521 -0.426099 9.000000
4.160198 -0.382490 -0.214442 102.000000
4.226522 -0.385650 -0.638194 54.000000
4.205657 -0.396765 -0.635031 53.000000
4.156024 -0.394967 -0.214257 69.000000
4.221591 -0.412789 -0.426530 14.000000
4.155786 -0.407811 -0.214315 52.000000
4.202455 -0.409473 -0.634711 60.000000
4.209039 -0.423150 -0.635972 47.000000
4.223271 -0.426035 -0.426855 6.000000
4.157495 -0.420857 -0.214493 35.000000
4.217990 -0.438578 -0.426414 8.000000
4.206740 -0.435958 -0.635811 47.000000
4.172069 -0.435260 -0.215456 25.000000
4.194582 -0.447711 -0.634070 73.000000
4.163767 -0.447312 -0.215030 23.000000
4.230463 -0.452992 -0.427941 11.000000
4.199079 -0.461221 -0.635015 61.000000
4.225101 -0.465533 -0.427501 22.000000
4.183210 -0.462378 -0.216295 10.000000
4.197644 -0.474100 -0.635012 60.000000
4.159952 -0.472735 -0.214963 11.000000
4.231555 -0.479384 -0.428372 22.000000
4.220191 -0.491216 -0.427276 29.000000
4.197151 -0.487088 -0.635166 61.000000
4.265055 -0.509688 -0.432407 6.000000
4.203482 -0.500893 -0.636427 37.000000
4.219569 -0.515937 -0.639269 32.000000
4.195431 -0.526059 -0.635631 24.000000
4.222201 -0.542568 -0.640210 29.000000
4.228349 -0.556545 -0.641471 41.000000
4.183562 -0.563725 -0.634515 78.000000
4.186705 -0.577228 -0.635302 85.000000
4.138958 -0.583603 -0.627872 151.000000
4.147900 -0.597843 -0.629607 236.000000
4.150931 -0.611282 -0.630394 243.000000
4.130483 -0.621227 -0.627388 177.000000
4.990165 -0.767655 -0.515178 205.000000
4.169552 -0.640176 -0.634021 122.000000
4.976985 -0.781266 -0.513972 218.000000
4.161716 -0.652048 -0.633070 94.000000
4.974565 -0.796529 -0.513968 155.000000
4.165546 -0.665745 -0.634015 67.000000
4.181028 -0.681373 -0.636856 55.000000
4.571822 -0.746539 -0.469394 14.000000
4.414580 -0.734816 -0.452130 12.000000
4.173074 -0.693226 -0.635904 52.000000
4.151455 -0.702734 -0.632741 61.000000
4.386824 -0.744040 -0.449286 7.000000
4.164850 -0.718145 -0.635266 53.000000
4.378644 -0.756480 -0.448628 4.000000
4.990914 -0.863828 -0.268033 131.000000
4.169436 -0.732111 -0.636369 52.000000
4.384135 -0.771284 -0.449498 11.000000
4.979393 -0.877577 -0.267486 125.000000
4.978643 -0.893199 -0.267603 143.000000
4.363157 -0.781404 -0.447419 11.000000
4.219664 -0.754265 -0.644898 19.000000
4.371497 -0.796742 -0.448617 13.000000
4.990609 -0.911152 -0.268504 124.000000
4.190126 -0.762265 -0.640470 36.000000
4.995642 -0.927913 -0.268983 71.000000
4.991235 -0.929760 -0.020744 45.000000
4.370010 -0.810329 -0.448723 10.000000
4.180001 -0.773679 -0.639203 46.000000
4.367504 -0.823730 -0.448719 8.000000
4.988359 -0.945066 -0.020740 58.000000
4.181490 -0.787228 -0.639831 32.000000
4.163538 -0.797085 -0.637300 26.000000
4.362027 -0.836563 -0.448388 8.000000
4.991329 -0.961497 -0.020804 62.000000
4.977560 -0.974692 -0.020675 36.000000
4.374076 -0.852789 -0.450023 17.000000
4.100007 -0.797987 -0.627342 23.000000
4.380216 -0.867939 -0.451002 13.000000
4.981412 -0.991320 -0.020750 19.000000
4.092696 -0.809603 -0.626549 24.000000
4.091161 -0.822349 -0.626704 23.000000
4.740193 -0.003956 -0.594039 57.000000
4.365839 -0.879020 -0.449688 5.000000
4.207890 -0.007460 -0.313089 5.000000
4.213826 -0.020402 -0.313587 7.000000
4.361174 -0.892010 -0.449466 10.000000
4.073139 -0.831738 -0.624172 21.000000
4.731238 -0.018454 -0.592842 50.000000
4.369123 -0.907605 -0.450664 10.000000
4.043495 -0.838622 -0.619745 24.000000
4.721248 -0.032890 -0.591513 41.000000
4.194811 -0.033160 -0.312000 12.000000
4.746894 -0.047653 -0.594959 49.000000
4.209636 -0.046206 -0.313248 8.000000
4.735824 -0.062062 -0.593497 36.000000
4.101043 -0.876814 -0.630008 28.000000
4.358613 -0.933353 -0.450111 5.000000
4.198514 -0.058954 -0.312328 20.000000
4.719755 -0.076319 -0.591371 36.000000
4.191339 -0.071707 -0.311742 21.000000
4.177152 -0.084268 -0.310572 22.000000
4.768056 -0.091773 -0.597868 58.000000
4.704335 -0.104930 -0.589375 30.000000
4.190139 -0.936236 -0.645956 39.000000
4.370211 -0.977976 -0.452394 10.000000
4.171892 -0.096961 -0.310152 23.000000
4.734707 -0.120166 -0.593485 46.000000
4.362343 -0.990279 -0.451844 8.000000
4.163606 -0.109540 -0.309483 21.000000
4.714502 -0.134108 -0.590828 45.000000
4.172215 -0.122583 -0.310230 27.000000
4.172815 -0.135414 -0.310311 30.000000
4.695246 -0.147960 -0.588305 36.000000
4.648215 -0.160712 -0.582068 32.000000
4.139517 -0.147014 -0.307557 77.000000
4.144563 -0.155586 -0.514681 72.000000
4.127098 -0.159239 -0.306554 78.000000
4.135153 -0.167928 -0.513484 92.000000
4.116633 -0.171473 -0.305717 92.000000
4.149471 -0.181275 -0.515471 71.000000
4.111111 -0.183873 -0.305298 113.000000
4.239979 -0.198352 -0.527672 28.000000
4.118490 -0.196871 -0.305962 88.000000
4.113886 -0.209297 -0.305626 122.000000
4.160160 -0.207333 -0.517057 54.000000
4.135751 -0.218813 -0.513871 102.000000
4.114220 -0.221970 -0.305707 175.000000
4.126154 -0.230991 -0.512675 121.000000
4.109540 -0.234358 -0.305370 133.000000
4.172461 -0.250852 -0.310703 39.000000
4.163023 -0.245905 -0.517712 57.000000
4.190567 -0.264863 -0.312285 21.000000
4.748842 -0.295708 -0.596365 67.000000
4.723188 -0.308636 -0.593046 48.000000
4.177803 -0.276914 -0.311281 33.000000
4.687611 -0.320725 -0.588400 48.000000
4.169975 -0.289238 -0.310695 16.000000
4.739000 -0.338896 -0.595427 50.000000
4.174038 -0.302393 -0.311109 31.000000
4.170110 -0.314967 -0.310856 38.000000
4.702358 -0.350746 -0.590649 41.000000
4.162170 -0.327204 -0.310270 39.000000
4.713117 -0.366101 -0.592238 51.000000
4.720863 -0.381283 -0.593428 42.000000
4.182996 -0.341777 -0.312101 19.000000
4.172992 -0.353840 -0.311348 33.000000
4.708807 -0.394842 -0.591966 49.000000
4.185783 -0.367874 -0.312512 18.000000
4.731271 -0.411366 -0.595146 72.000000
4.713207 -0.424352 -0.592888 55.000000
4.184635 -0.380712 -0.312509 22.000000
4.717804 -0.439364 -0.593680 45.000000
4.184440 -0.393640 -0.312590 15.000000
4.184204 -0.406572 -0.312670 19.000000
4.720380 -0.454217 -0.594208 53.000000
4.729813 -0.469782 -0.595663 56.000000
4.175997 -0.418702 -0.312084 5.000000
4.731308 -0.484595 -0.596058 57.000000
4.172711 -0.431303 -0.311915 5.000000
4.731771 -0.499316 -0.596320 43.000000
4.164433 -0.443356 -0.311328 7.000000
4.156119 -0.455361 -0.310742 5.000000
4.735143 -0.514368 -0.596980 59.000000
4.739453 -0.529556 -0.597772 53.000000
4.139851 -0.466420 -0.309489 7.000000
4.743714 -0.544776 -0.598565 57.000000
4.799583 -0.556321 -0.365167 3.000000
4.744973 -0.559676 -0.598959 49.000000
4.713717 -0.570630 -0.594977 40.000000
4.684407 -0.581643 -0.591260 15.000000
4.677685 -0.595380 -0.590594 12.000000
4.666993 -0.608565 -0.589397 7.000000
4.653316 -0.621294 -0.587802 9.000000
4.629786 -0.632594 -0.584881 22.000000
4.646472 -0.649417 -0.587398 18.000000
4.996409 -0.719598 -0.383223 137.000000
4.624837 -0.660846 -0.584742 25.000000
4.986292 -0.733754 -0.382552 163.000000
4.978106 -0.748153 -0.382049 204.000000
4.973817 -0.763116 -0.381879 229.000000
4.502951 -0.685667 -0.569083 4.000000
4.424443 -0.687535 -0.558736 10.000000
4.973422 -0.778680 -0.382042 168.000000
4.398822 -0.697358 -0.555550 13.000000
4.973961 -0.794406 -0.382288 191.000000
4.973468 -0.809982 -0.382451 194.000000
4.379053 -0.707984 -0.553159 18.000000
4.972926 -0.825563 -0.382614 189.000000
4.365127 -0.719469 -0.551565 34.000000
4.364854 -0.733186 -0.551827 18.000000
4.977247 -0.841982 -0.383194 150.000000
4.983478 -0.858776 -0.383940 111.000000
4.361608 -0.746404 -0.551691 13.000000
4.996403 -0.882183 -0.136087 141.000000
4.983764 -0.874578 -0.384187 151.000000
4.354416 -0.758924 -0.551025 12.000000
4.983020 -0.890215 -0.384350 187.000000
4.988756 -0.896618 -0.135912 153.000000
4.346213 -0.771234 -0.550226 12.000000
4.358456 -0.787218 -0.552212 12.000000
4.979285 -0.905317 -0.384263 160.000000
4.984015 -0.911555 -0.135840 131.000000
4.362843 -0.801845 -0.553137 10.000000
4.979231 -0.926472 -0.135768 169.000000
4.975504 -0.920404 -0.384176 140.000000
4.977347 -0.941928 -0.135799 136.000000
4.972658 -0.935663 -0.384172 166.000000
4.358415 -0.814858 -0.552869 10.000000
4.370498 -0.831015 -0.554855 6.000000
4.975415 -0.957381 -0.135829 130.000000
4.970743 -0.951100 -0.384252 162.000000
4.984223 -0.974950 -0.136236 78.000000
4.972692 -0.967299 -0.384665 154.000000
4.970679 -0.982742 -0.384744 164.000000
4.987089 -0.991409 -0.136437 138.000000
4.392544 -0.863189 -0.558561 6.000000
4.969594 -0.998380 -0.384907 191.000000
4.386961 -0.876074 -0.558160 10.000000
4.395907 -0.891903 -0.559748 13.000000
4.415474 -0.910006 -0.562795 12.000000
4.405872 -0.922119 -0.561863 7.000000
4.402053 -0.935423 -0.561727 5.000000
4.403038 -0.949762 -0.562254 7.000000
4.401072 -0.963477 -0.562384 10.000000
4.399063 -0.977188 -0.562513 6.000000
4.408612 -0.993522 -0.564233 18.000000
