# .PCD v0.7 - Point Cloud Data file format
VERSION 0.7
FIELDS x y z intensity
SIZE 4 4 4 4
TYPE F F F F
COUNT 1 1 1 1
WIDTH 206
HEIGHT 1
VIEWPOINT 0 0 0 1 0 0 0
POINTS 206
DATA ascii
6.501210 1.997177 2.375702 25.000000
6.548906 1.989879 2.390711 10.000000
6.526230 1.974260 2.767146 8.000000
6.611365 1.995569 2.034780 107.000000
6.500256 1.944652 2.753721 11.000000
6.547738 1.967605 2.388100 6.000000
6.525655 1.939158 2.377985 15.000000
6.607334 1.972257 2.031712 104.000000
6.542667 1.935506 2.769010 10.000000
6.602301 1.948716 2.028365 123.000000
6.474662 1.893791 2.738059 6.000000
6.516155 1.914600 2.372437 16.000000
6.600873 1.926302 2.026133 141.000000
6.495675 1.886951 2.362974 12.000000
6.416268 1.855350 2.711210 7.000000
6.600292 1.904181 2.024180 157.000000
6.475995 1.859707 2.353837 9.000000
6.480760 1.839576 2.353510 24.000000
6.603332 1.883137 2.023344 136.000000
6.418770 1.792237 2.705243 9.000000
6.388994 1.792346 2.318596 12.000000
6.605381 1.861831 2.022228 138.000000
6.068379 1.682254 2.201780 9.000000
6.602735 1.839240 2.019717 130.000000
6.134589 1.680381 2.223642 7.000000
6.600939 1.816938 2.017485 121.000000
6.126029 1.657849 2.218748 16.000000
6.598142 1.794413 2.014975 121.000000
6.592486 1.771173 2.011628 135.000000
6.130171 1.638807 2.218421 5.000000
6.590464 1.748971 2.009397 134.000000
6.126030 1.617582 2.215158 8.000000
6.193157 1.615020 2.237346 11.000000
6.281378 1.617488 2.267039 15.000000
6.340358 1.611969 2.286291 32.000000
6.354440 1.594818 2.289553 30.000000
6.374899 1.579188 2.295100 34.000000
6.378795 1.559403 2.294774 20.000000
6.443274 1.554253 2.315984 42.000000
6.543642 1.557266 2.349918 87.000000
6.553909 1.538485 2.351876 81.000000
6.563201 1.519442 2.353508 75.000000
6.567831 1.499304 2.353508 77.000000
6.558567 1.476036 2.348614 67.000000
6.558449 1.454888 2.346982 70.000000
6.557340 1.433552 2.345024 87.000000
6.550618 1.411041 2.341109 100.000000
6.553066 1.390549 2.340457 82.000000
6.553599 1.369669 2.339152 99.000000
6.554992 1.348989 2.338173 87.000000
6.554467 1.327937 2.336542 96.000000
6.556655 1.307457 2.335890 94.000000
6.554142 1.286064 2.333606 103.000000
6.553415 1.265058 2.331974 116.000000
6.553550 1.244245 2.330670 109.000000
6.555477 1.223791 2.330018 137.000000
6.614051 1.213758 2.349269 45.000000
6.494024 1.171123 2.305872 13.000000
6.487347 1.149382 2.302283 7.000000
6.488048 1.128992 2.301305 10.000000
6.451416 1.102231 2.287274 12.000000
6.520954 1.093554 2.310442 55.000000
6.483239 1.066785 2.296086 20.000000
6.470988 1.024034 2.289561 11.000000
6.494648 1.007374 2.296740 27.000000
6.011580 1.983491 2.421065 8.000000
6.081569 1.998258 2.090291 64.000000
6.084953 1.978714 2.089373 56.000000
6.054098 1.976925 2.435568 13.000000
6.090992 1.960042 2.089375 58.000000
6.094254 1.940486 2.088458 69.000000
6.103808 1.922927 2.089686 61.000000
6.238825 1.973796 2.501717 9.000000
6.200208 1.940709 2.484035 12.000000
6.170573 1.923135 2.110230 32.000000
6.194636 1.909798 2.116365 39.000000
6.197733 1.889958 2.115448 42.000000
6.370905 1.929857 2.544525 8.000000
6.308318 1.902483 2.150708 35.000000
6.386195 1.904573 2.174932 48.000000
6.515790 1.964316 2.998659 11.000000
6.413536 1.921291 2.559030 9.000000
6.440402 1.899217 2.191184 53.000000
6.514756 1.942232 2.995460 21.000000
6.389796 1.892862 2.547360 11.000000
6.474527 1.887697 2.200691 65.000000
6.515406 1.920691 2.993061 10.000000
6.380309 1.868794 2.541350 8.000000
6.526545 1.902234 2.995465 11.000000
6.504070 1.874670 2.208665 75.000000
6.406677 1.855188 2.549488 14.000000
6.521778 1.879169 2.990665 19.000000
6.361071 1.820888 2.529330 8.000000
6.521691 1.858096 2.212653 81.000000
6.528392 1.859409 2.991068 14.000000
6.392730 1.808738 2.539590 15.000000
6.537438 1.840917 2.216029 80.000000
6.309953 1.764491 2.504930 11.000000
6.546721 1.821875 2.217258 82.000000
6.527004 1.837395 2.987869 12.000000
6.555032 1.802542 2.218181 83.000000
6.522894 1.814672 2.983469 9.000000
6.370339 1.760293 2.526509 22.000000
6.357657 1.735830 2.519437 23.000000
6.507218 1.788840 2.973865 13.000000
6.563284 1.783176 2.219103 88.000000
6.569642 1.763283 2.219413 112.000000
6.350305 1.712920 2.514488 33.000000
6.494098 1.763841 2.965463 14.000000
6.518066 1.748891 2.973871 8.000000
6.357851 1.685686 2.147059 45.000000
6.306714 1.680460 2.495391 26.000000
6.430371 1.704297 2.931848 23.000000
6.351018 1.663050 2.143076 43.000000
6.281981 1.653271 2.483721 25.000000
6.360697 1.644752 2.144612 49.000000
6.319617 1.642446 2.496458 35.000000
6.402760 1.676000 2.917041 28.000000
6.365711 1.625235 2.144615 51.000000
6.312844 1.620040 2.491862 38.000000
6.378586 1.648805 2.903835 31.000000
6.385435 1.609416 2.149523 38.000000
6.365850 1.624712 2.895833 43.000000
6.309620 1.598608 2.488682 37.000000
6.389466 1.609871 2.904242 27.000000
6.478103 1.611601 2.178653 24.000000
6.304510 1.576758 2.484794 35.000000
6.301141 1.555402 2.481613 31.000000
6.405935 1.593135 2.909447 30.000000
6.434015 1.579725 2.162407 36.000000
6.496192 1.573844 2.181419 63.000000
6.286794 1.531431 2.474188 27.000000
6.423251 1.576530 2.915054 25.000000
6.498427 1.573821 2.946677 8.000000
6.522283 1.558989 2.188473 94.000000
6.299646 1.514104 2.477375 31.000000
6.471130 1.546235 2.932271 15.000000
6.266028 1.485736 2.462522 23.000000
6.527960 1.539195 2.188783 105.000000
6.532650 1.519165 2.188787 98.000000
6.301526 1.473733 2.474551 27.000000
6.485653 1.528687 2.936677 16.000000
6.499238 1.510857 2.940682 23.000000
6.558619 1.504002 2.195841 161.000000
6.277757 1.447900 2.463589 21.000000
6.508306 1.491938 2.942687 15.000000
6.553914 1.481785 2.192778 135.000000
6.315006 1.436085 2.476325 34.000000
6.322118 1.417322 2.477390 30.000000
6.552852 1.460437 2.190942 117.000000
6.508380 1.470963 2.940689 19.000000
6.499441 1.448013 2.934688 12.000000
6.559159 1.440739 2.191559 131.000000
6.323694 1.397321 2.476331 33.000000
6.497584 1.426700 2.931889 17.000000
6.296871 1.371172 2.464308 24.000000
6.556103 1.419008 2.189109 123.000000
6.552975 1.397309 2.186659 121.000000
6.313851 1.354591 2.469263 23.000000
6.499240 1.406186 2.930692 18.000000
6.552571 1.376228 2.185130 124.000000
6.353669 1.342740 2.483062 37.000000
6.494557 1.384341 2.926693 19.000000
6.557692 1.356316 2.185439 143.000000
6.358673 1.323437 2.483418 31.000000
6.496977 1.364040 2.925895 12.000000
6.562754 1.336385 2.185749 116.000000
6.363617 1.304115 2.483775 34.000000
6.506513 1.345217 2.928300 15.000000
6.568687 1.316623 2.186366 118.000000
6.505219 1.324161 2.925902 17.000000
6.359333 1.282931 2.480595 26.000000
6.366907 1.264147 2.482013 31.000000
6.510146 1.304383 2.926305 17.000000
6.574561 1.296837 2.186982 128.000000
6.513216 1.284233 2.925908 14.000000
6.571965 1.275400 2.184839 134.000000
6.315666 1.233887 2.460793 23.000000
6.568365 1.253814 2.182390 102.000000
6.315745 1.213806 2.459381 21.000000
6.519822 1.264772 2.927112 15.000000
6.301972 1.191140 2.452664 22.000000
6.523668 1.244770 2.927116 19.000000
6.578727 1.234887 2.184539 42.000000
6.545037 1.207816 2.172278 28.000000
6.236616 1.159031 2.426138 10.000000
6.522950 1.223913 2.925117 10.000000
6.503750 1.179609 2.157565 17.000000
6.528474 1.204233 2.925921 6.000000
6.418305 1.143845 2.128440 7.000000
6.541805 1.145088 2.167689 27.000000
6.562173 1.127910 2.173212 44.000000
6.354171 1.080282 2.464710 14.000000
6.512942 1.118949 2.912726 8.000000
6.559968 1.106831 2.171376 46.000000
6.500075 1.096235 2.905524 6.000000
6.353763 1.060175 2.463298 7.000000
6.385601 1.045349 2.474267 9.000000
6.569451 1.067025 2.172302 47.000000
6.575511 1.047318 2.173226 96.000000
6.386929 1.025463 2.473563 10.000000
6.519339 1.058391 2.911135 11.000000
6.519837 1.037960 2.909938 9.000000
6.581513 1.027584 2.174149 81.000000
6.511217 1.016129 2.904738 9.000000
6.570518 1.005242 2.169553 101.000000
