# .PCD v0.7 - Point Cloud Data file format
VERSION 0.7
FIELDS x y z intensity
SIZE 4 4 4 4
TYPE F F F F
COUNT 1 1 1 1
WIDTH 1300
HEIGHT 1
VIEWPOINT 0 0 0 1 0 0 0
POINTS 1300
DATA ascii
5.265882 3.634882 2.606688 21.000000
5.269899 3.613871 2.603489 20.000000
5.302217 3.594422 4.273119 5.000000
5.532621 3.759654 3.981959 13.000000
5.536721 3.737736 3.977043 10.000000
5.269193 3.589781 2.598086 19.000000
5.315813 3.579814 4.275416 7.000000
5.266835 3.564715 2.591948 27.000000
5.327265 3.563795 4.276074 13.000000
5.551909 3.698676 3.972245 17.000000
5.276034 3.547358 2.591323 27.000000
5.339371 3.548193 4.277279 8.000000
5.268825 3.519289 2.582979 42.000000
5.545626 3.670190 3.960284 12.000000
5.350733 3.532085 4.277937 18.000000
5.286466 3.507487 2.586396 31.000000
5.359934 3.514581 4.276955 7.000000
5.553758 3.651123 3.958386 11.000000
5.557454 3.629262 3.953471 24.000000
5.371900 3.498865 4.278161 8.000000
5.306427 3.497133 2.590917 27.000000
5.328723 3.488197 2.596543 17.000000
5.549396 3.600007 3.940503 16.000000
5.533175 3.565756 3.921997 6.000000
5.325902 3.463185 2.590405 35.000000
5.551221 3.553183 3.927146 4.000000
5.337135 3.447150 2.590883 20.000000
5.345955 3.429608 2.590259 29.000000
5.527417 3.514531 3.903606 10.000000
5.350771 3.409593 2.587798 29.000000
5.524747 3.489233 3.894662 6.000000
5.361052 3.393000 2.587911 34.000000
5.529342 3.468499 3.890752 13.000000
5.536080 3.449105 3.888351 10.000000
5.372077 3.376850 2.588390 31.000000
5.533881 3.424338 3.879910 11.000000
5.383054 3.360669 2.588871 25.000000
5.538245 3.403637 3.876000 8.000000
5.392389 3.343503 2.588617 20.000000
5.398485 3.324388 2.586892 24.000000
5.564050 3.395780 3.886691 14.000000
5.417288 3.312890 2.591051 28.000000
5.568309 3.375009 3.882781 10.000000
5.572495 3.354238 3.878870 11.000000
5.436072 3.301305 2.595211 21.000000
5.810602 3.505391 3.592464 15.000000
5.821144 3.487405 3.592589 5.000000
5.578841 3.334799 3.876471 11.000000
5.450828 3.287292 2.597533 30.000000
5.601558 3.324898 3.885151 14.000000
5.466352 3.273691 2.600224 23.000000
5.834702 3.471177 3.594552 13.000000
5.615289 3.309694 3.887788 7.000000
5.838223 3.449100 3.590544 9.000000
5.490690 3.265151 2.606961 27.000000
5.849368 3.431457 3.591127 21.000000
5.505363 3.250913 2.609285 19.000000
5.858143 3.412471 3.590335 10.000000
5.523227 3.238478 2.613081 28.000000
5.644882 3.280421 3.894574 9.000000
5.667521 3.270164 3.903257 8.000000
5.862219 3.390842 3.586788 11.000000
5.542682 3.226889 2.617615 22.000000
5.674327 3.250914 3.901364 8.000000
5.844187 3.381722 2.368056 7.000000
5.561311 3.214738 2.621780 21.000000
5.864673 3.368332 3.582321 23.000000
5.577485 3.201138 2.624842 34.000000
5.862643 3.368260 2.371395 3.000000
5.689373 3.236274 3.905010 10.000000
5.874025 3.349735 3.581987 22.000000
5.592815 3.187025 2.627537 24.000000
5.867016 3.346875 2.369272 15.000000
5.858459 3.317341 3.566957 12.000000
5.835745 3.281224 3.547791 7.000000
5.612993 3.175555 2.632441 26.000000
5.878767 3.329635 2.370042 32.000000
5.628265 3.161295 2.635138 21.000000
5.811311 3.244414 3.527705 8.000000
5.892957 3.313712 2.371775 36.000000
5.812476 3.221755 3.522776 11.000000
5.904614 3.296366 2.372545 17.000000
5.643503 3.146967 2.637834 24.000000
5.659524 3.133026 2.640900 19.000000
5.804953 3.194494 3.512795 8.000000
5.917053 3.279441 2.373637 34.000000
5.921939 3.258432 2.371837 20.000000
5.677969 3.120340 2.645071 27.000000
5.812985 3.175689 3.512002 19.000000
5.694750 3.106694 2.648506 35.000000
5.941785 3.245459 2.375822 32.000000
5.808405 3.150198 3.503857 8.000000
5.948227 3.225279 2.374665 30.000000
5.825730 3.136345 3.508577 12.000000
5.710680 3.092526 2.651573 18.000000
5.824921 3.112960 3.502729 6.000000
5.953763 3.204659 2.373186 23.000000
5.728223 3.079166 2.655378 17.000000
6.091136 3.261690 3.227845 6.000000
6.113057 3.249151 3.234192 16.000000
5.853980 3.105159 3.514343 18.000000
5.739968 3.062718 2.656606 20.000000
5.975172 3.192376 2.377817 34.000000
6.125256 3.231495 3.235569 20.000000
5.985635 3.174321 2.378268 33.000000
5.864886 3.087854 3.515389 11.000000
5.753318 3.047084 2.658571 11.000000
5.897094 3.081421 3.528843 13.000000
5.988472 3.152318 2.375826 33.000000
6.132546 3.211293 3.234459 12.000000
5.907142 3.063567 3.529430 13.000000
6.144638 3.193557 3.235836 16.000000
6.007247 3.138523 2.379493 25.000000
6.017550 3.120368 2.379946 25.000000
6.147742 3.171274 3.232656 20.000000
5.918720 3.046492 3.530938 15.000000
6.039639 3.108140 2.384902 28.000000
5.935812 3.032149 3.535663 12.000000
6.155650 3.151444 3.231962 19.000000
6.047313 3.088597 2.384390 21.000000
6.156978 3.128343 3.227952 21.000000
5.948895 3.015748 3.538090 12.000000
6.165569 3.108887 3.227672 30.000000
5.954763 2.995762 3.536380 14.000000
6.049836 3.066509 2.381948 21.000000
5.986099 2.988261 3.549381 8.000000
6.143042 3.074208 3.211645 8.000000
6.076065 3.056165 2.388515 13.000000
6.152283 3.055210 3.211780 15.000000
6.039336 3.014920 2.371276 21.000000
6.036492 2.990438 2.366903 19.000000
6.134419 3.023118 3.198235 15.000000
8.126339 3.972154 4.768795 7.000000
8.133460 3.944800 4.766221 5.000000
6.010520 2.954919 2.353842 28.000000
6.123806 2.994703 3.188420 18.000000
6.123763 2.971473 3.183995 16.000000
6.032238 2.942446 2.358801 18.000000
6.121990 2.947493 3.178741 13.000000
6.028266 2.917707 2.354106 32.000000
8.216459 3.985190 0.362454 48.000000
6.048194 2.904280 2.358421 27.000000
8.243903 3.967115 0.363193 24.000000
8.282704 3.983148 0.818655 47.000000
6.118482 2.922766 3.172656 13.000000
6.054368 2.884356 2.357588 24.000000
5.061641 3.979114 4.580921 6.000000
8.187631 3.847657 4.771106 7.000000
8.309208 3.964374 0.820146 40.000000
6.333641 3.007676 2.860071 9.000000
6.127264 2.903830 3.172789 17.000000
8.371242 3.989365 1.285857 38.000000
8.264983 3.945930 0.363705 36.000000
8.372268 3.979946 2.231210 4.000000
6.367167 2.999393 2.870898 12.000000
8.364850 3.945123 2.226415 14.000000
6.128547 2.881457 3.169192 13.000000
8.340190 3.947602 0.822049 47.000000
8.397697 3.970260 1.288132 34.000000
8.400398 3.965621 1.755279 3.000000
6.058758 2.863639 2.356111 25.000000
8.285102 3.924253 0.364188 49.000000
5.069696 3.960428 4.577590 10.000000
8.244592 3.812617 4.790798 13.000000
8.315145 3.907108 0.365031 45.000000
8.361724 3.912422 2.222754 11.000000
6.133063 2.860616 3.167254 15.000000
8.426815 3.952280 1.290799 49.000000
8.483727 3.962856 2.747569 10.000000
5.063962 3.931329 4.562237 10.000000
6.086312 2.853585 2.363326 12.000000
8.369337 3.929844 0.823791 30.000000
6.381259 2.982035 2.873251 5.000000
6.091458 2.833180 2.362171 31.000000
5.048935 3.895387 4.538870 8.000000
8.268984 3.793046 4.798345 6.000000
8.343347 3.888963 0.365807 41.000000
8.396646 3.911096 0.825368 42.000000
8.483434 3.931115 2.743921 5.000000
8.450497 3.931664 1.292683 43.000000
8.382398 3.890688 2.225213 15.000000
6.138339 2.840138 3.165730 12.000000
6.402079 2.967681 2.878552 12.000000
8.423011 3.891802 0.826864 47.000000
6.156000 2.825245 3.170426 9.000000
8.474130 3.910936 1.294568 42.000000
8.492664 3.903770 2.743292 12.000000
6.412699 2.948644 2.879430 15.000000
8.371515 3.870679 0.366584 38.000000
8.445091 3.891887 1.757643 13.000000
5.055400 3.875784 4.534392 9.000000
6.108618 2.818222 2.365524 21.000000
6.167809 2.807686 3.172220 10.000000
6.121423 2.801257 2.367267 27.000000
5.053897 3.850312 4.523045 10.000000
6.435146 2.934886 2.885470 19.000000
8.447519 3.871574 0.828200 42.000000
8.495005 3.888890 1.296064 35.000000
8.498296 3.874842 2.741566 10.000000
8.401472 3.853094 0.367429 39.000000
5.000059 3.686147 2.747515 32.000000
8.459553 3.835799 1.756250 6.000000
5.050965 3.823918 4.510553 13.000000
6.136777 2.785406 2.369978 19.000000
8.502952 3.845542 2.739568 17.000000
8.518537 3.867985 1.297955 51.000000
8.309393 3.719363 4.802596 5.000000
6.171245 2.786414 3.169868 14.000000
8.429574 3.834564 0.368212 43.000000
6.430372 2.908979 2.879715 13.000000
8.472891 3.851659 0.829621 40.000000
8.497311 3.831199 0.830959 32.000000
8.523343 3.823220 2.742509 6.000000
8.455816 3.815065 0.368928 33.000000
6.190445 2.772074 3.175396 31.000000
8.542931 3.847353 1.299974 44.000000
8.333568 3.699442 4.810146 7.000000
8.494538 3.820078 1.761085 8.000000
6.145162 2.766420 2.370113 24.000000
5.057838 3.804848 4.506649 11.000000
6.445926 2.892091 2.882807 36.000000
5.008195 3.668487 2.746037 27.000000
8.479277 3.794223 0.369546 33.000000
6.202105 2.754371 3.177190 16.000000
8.630001 3.838604 2.772354 6.000000
8.570910 3.828195 1.302514 29.000000
6.437579 2.864728 2.875575 22.000000
5.080540 3.797366 4.516483 11.000000
5.016273 3.650807 2.744557 29.000000
8.522600 3.811018 0.832378 37.000000
6.159562 2.750055 2.372502 28.000000
8.526807 3.802983 1.765385 5.000000
6.427419 2.836714 2.867606 7.000000
6.202017 2.731588 3.173179 10.000000
8.587944 3.804158 1.303493 42.000000
8.547843 3.790731 0.833799 42.000000
6.179132 2.735894 2.376824 18.000000
8.543713 3.779061 1.766653 7.000000
8.652648 3.822531 2.277428 5.000000
5.028794 3.636296 2.745449 25.000000
5.083992 3.775829 4.509716 5.000000
8.502687 3.773286 0.370167 25.000000
8.525131 3.751859 0.370758 38.000000
6.197803 2.721276 2.380825 22.000000
5.044279 3.623858 2.747922 33.000000
6.412023 2.806600 2.857425 12.000000
8.575787 3.771528 0.835469 44.000000
6.203522 2.709556 3.169998 5.000000
8.624022 3.788333 1.307211 33.000000
5.349730 3.910141 4.224833 13.000000
5.094010 3.759105 4.508674 7.000000
5.061998 3.612933 2.751581 30.000000
8.591795 3.737233 1.772051 8.000000
5.115976 3.750942 4.517939 7.000000
6.392228 2.774784 2.845398 17.000000
8.647326 3.766844 1.309106 34.000000
5.358038 3.891107 4.222293 11.000000
8.553036 3.732690 0.371545 42.000000
6.215572 2.706193 2.384505 19.000000
8.600029 3.750609 0.836812 38.000000
8.579985 3.712972 0.372298 34.000000
8.402335 3.588406 4.249753 5.000000
5.363514 3.870092 4.217634 10.000000
8.918412 3.834788 2.848402 4.000000
6.243773 2.695433 2.392050 34.000000
8.679708 3.749106 1.312301 28.000000
6.388575 2.749959 2.840376 15.000000
5.125918 3.734115 4.516898 6.000000
8.629729 3.731898 0.838644 32.000000
8.617579 3.716895 1.775106 5.000000
5.072148 3.596693 2.751289 29.000000
7.831105 3.350958 2.058944 11.000000
8.655722 3.711496 0.840150 25.000000
8.608735 3.693907 0.373118 41.000000
6.280697 2.688188 2.402817 10.000000
8.938839 3.811032 2.851354 4.000000
5.369606 3.849569 4.213504 13.000000
8.708407 3.729671 1.314978 32.000000
5.143170 3.722470 4.522155 7.000000
8.436686 3.560516 4.832464 7.000000
8.629798 3.652797 4.356987 11.000000
5.087544 3.584071 2.753763 37.000000
6.371966 2.719809 2.829823 22.000000
8.638370 3.675115 0.373976 42.000000
6.281790 2.665873 2.400380 28.000000
8.658116 3.671340 1.779079 8.000000
5.382578 3.833903 4.214675 9.000000
5.166433 3.715006 4.532568 6.000000
8.735238 3.709357 1.317398 30.000000
6.374127 2.697631 2.827383 22.000000
8.687185 3.693305 0.842152 30.000000
7.814248 3.315575 2.052313 8.000000
5.102908 3.571402 2.756238 25.000000
5.192388 3.709311 4.545272 11.000000
8.719540 3.675338 0.844237 16.000000
6.380511 2.677230 2.826787 14.000000
8.483425 3.518929 4.847122 6.000000
8.967055 3.758169 2.853422 7.000000
8.651641 3.599627 4.357390 9.000000
5.113683 3.555576 2.756343 42.000000
8.760193 3.688153 1.319559 33.000000
5.380859 3.808062 4.204718 6.000000
8.668893 3.656558 0.374868 43.000000
6.312569 2.655830 2.408896 25.000000
8.680116 3.649193 1.781426 11.000000
5.383235 3.785133 4.197938 10.000000
8.697538 3.637056 0.375691 36.000000
6.337210 2.643098 2.415156 25.000000
5.125936 3.540730 2.757237 45.000000
5.201517 3.691801 4.543659 9.000000
8.987282 3.734179 2.856375 8.000000
8.701154 3.626541 1.783590 9.000000
8.790606 3.669061 1.322499 44.000000
6.397162 2.661000 2.830616 18.000000
8.740808 3.652626 0.845337 24.000000
8.644742 3.565775 4.348875 8.000000
5.142726 3.528909 2.760504 28.000000
8.726146 3.617415 0.376516 39.000000
8.764788 3.630948 0.846684 20.000000
8.730336 3.607133 1.787365 10.000000
6.368853 2.633083 2.423996 14.000000
6.405154 2.641216 2.830758 20.000000
5.382019 3.759835 4.188509 14.000000
8.817313 3.648323 1.324918 28.000000
6.419106 2.660088 2.061210 7.000000
7.765540 3.211274 2.033091 9.000000
8.658820 3.540493 4.350733 13.000000
5.234221 3.690544 4.562090 9.000000
8.758569 3.587237 1.790965 17.000000
8.757492 3.598784 0.377444 30.000000
5.241250 3.671543 4.558762 13.000000
6.637648 2.724912 2.126197 24.000000
8.838457 3.625254 1.326559 30.000000
5.390521 3.741256 4.186500 9.000000
8.565971 3.460748 4.876240 6.000000
6.367986 2.609876 2.420915 26.000000
6.415675 2.622459 2.832007 11.000000
5.422420 3.675718 2.511406 11.000000
5.151842 3.511942 2.759819 30.000000
8.791487 3.610305 0.848280 27.000000
8.656765 3.508775 4.344709 6.000000
8.782313 3.577401 0.378144 46.000000
8.782191 3.565387 1.793674 9.000000
5.442912 3.665104 2.515703 19.000000
5.387707 3.715082 4.176012 11.000000
6.426142 2.603669 2.833258 22.000000
6.656571 2.708688 2.129644 27.000000
8.818142 3.589542 0.849880 28.000000
8.865065 3.604311 1.328986 25.000000
5.163200 3.496477 2.760321 27.000000
8.652905 3.476442 4.337858 7.000000
6.411021 2.604192 2.433948 18.000000
5.258380 3.659450 4.564025 5.000000
6.433960 2.583797 2.833400 19.000000
5.176821 3.482471 2.762007 19.000000
8.648935 3.444133 4.331000 13.000000
8.895316 3.584666 1.331931 31.000000
8.632106 3.425714 4.901951 8.000000
6.683506 2.695529 2.135563 32.000000
8.844756 3.568615 0.851475 27.000000
8.810803 3.557341 0.378972 42.000000
5.463395 3.654380 2.519999 30.000000
6.423254 2.586100 2.435701 28.000000
5.385497 3.689415 4.166051 6.000000
5.194252 3.470922 2.765671 32.000000
6.438083 2.568989 2.438422 24.000000
6.439118 2.562887 2.832435 17.000000
8.925532 3.564867 1.334877 36.000000
8.870397 3.547191 0.852990 31.000000
5.476004 3.638459 2.520809 29.000000
8.854016 3.530990 1.803913 17.000000
8.679621 3.425383 4.341161 8.000000
8.834603 3.535306 0.379636 42.000000
5.383888 3.664264 4.156621 10.000000
6.690727 2.674517 2.135437 28.000000
6.703259 2.655590 2.136961 31.000000
8.863006 3.515003 0.380470 45.000000
8.946470 3.541343 1.336522 27.000000
8.693288 3.399964 4.343023 8.000000
8.894936 3.515498 1.810022 19.000000
8.626017 3.362329 4.887621 8.000000
6.460814 2.554903 2.444045 21.000000
8.897845 3.526395 0.854673 24.000000
5.207033 3.456314 2.766964 41.000000
6.457217 2.547008 2.837007 9.000000
5.494864 3.626574 2.524410 30.000000
5.378636 3.636832 4.144540 12.000000
8.645209 3.339242 4.892886 6.000000
8.979371 3.522374 1.339866 32.000000
5.373976 3.609934 4.132990 8.000000
8.922461 3.504391 0.856112 28.000000
6.718433 2.637651 2.139311 31.000000
5.508180 3.611070 2.525572 30.000000
8.723882 3.380983 4.353189 9.000000
6.492357 2.544096 2.452893 19.000000
5.224408 3.444646 2.770630 27.000000
8.920237 3.493778 1.813093 12.000000
8.884843 3.492040 0.381075 49.000000
6.467466 2.528056 2.838259 18.000000
5.369916 3.583554 4.121968 11.000000
6.477660 2.509057 2.839510 17.000000
8.914088 3.471827 0.381943 37.000000
5.244084 3.434383 2.775482 25.000000
8.960195 3.477542 1.819025 15.000000
9.007611 3.501452 1.342557 29.000000
8.632772 3.304170 4.880658 6.000000
6.504427 2.525713 2.454650 19.000000
8.955402 3.485466 0.858288 29.000000
6.728169 2.617581 2.140012 24.000000
5.521454 3.595511 2.526733 22.000000
6.517332 2.507602 2.456728 17.000000
5.261422 3.422544 2.779148 28.000000
9.036736 3.480723 1.345378 27.000000
6.490409 2.490988 2.841868 8.000000
8.988314 3.466354 0.860464 25.000000
5.529934 3.576890 2.525802 20.000000
5.367884 3.558607 4.112536 18.000000
6.742342 2.599161 2.142086 31.000000
8.981736 3.454108 1.821379 16.000000
8.829273 3.359104 4.395108 5.000000
8.937689 3.449319 0.382611 35.000000
8.647654 3.279428 4.883618 4.000000
9.019797 3.436813 1.826956 15.000000
9.060250 3.457774 1.347418 29.000000
9.014662 3.444635 0.862068 37.000000
6.548813 2.496395 2.465579 8.000000
5.542319 3.560752 2.526615 26.000000
5.276405 3.409170 2.781629 32.000000
8.639980 3.246331 4.874152 8.000000
6.507464 2.474496 2.846072 7.000000
5.372167 3.537842 4.107876 9.000000
9.227967 3.510971 2.378163 7.000000
6.742960 2.575637 2.140037 18.000000
8.874312 3.344888 4.412335 8.000000
8.964042 3.427773 0.383382 58.000000
9.023715 3.406655 1.825916 9.000000
5.300694 3.401599 2.788857 32.000000
8.910805 3.327307 4.425416 5.000000
9.094857 3.438884 1.351029 27.000000
9.040960 3.422807 0.863676 21.000000
5.382087 3.520746 4.107458 14.000000
6.757923 2.557494 2.142390 19.000000
8.992218 3.406816 0.384223 52.000000
8.605511 3.203560 4.849954 8.000000
5.542729 3.537142 2.522198 23.000000
5.656723 3.669347 3.833982 9.000000
6.549211 2.473545 2.463146 21.000000
9.078429 3.404983 0.866270 28.000000
6.762008 2.535300 2.141442 16.000000
9.260927 3.458516 2.381554 8.000000
5.664809 3.649971 3.832157 12.000000
6.565530 2.456569 2.466518 17.000000
5.386944 3.500436 4.103329 18.000000
5.547828 3.516518 2.519873 24.000000
9.119202 3.416032 1.353204 38.000000
9.172608 3.402217 3.967073 8.000000
5.317969 3.389538 2.792526 24.000000
9.025040 3.387442 0.385230 36.000000
9.045998 3.383295 1.828455 9.000000
8.616761 3.177669 4.851075 12.000000
9.108388 3.384197 0.868205 32.000000
9.227391 3.390089 3.986112 5.000000
6.585367 2.440789 2.471179 21.000000
6.778669 2.517686 2.144343 24.000000
5.680241 3.635201 3.835192 15.000000
9.258543 3.425321 2.378585 5.000000
8.651330 3.160121 4.865086 10.000000
5.577600 3.511109 2.528360 35.000000
9.053134 3.366155 0.386069 45.000000
8.999980 3.297394 4.459464 14.000000
9.073771 3.361827 1.832065 11.000000
5.398188 3.484187 4.103970 11.000000
5.330535 3.374492 2.793822 27.000000
9.150944 3.395759 1.356421 29.000000
6.779006 2.494137 2.142294 20.000000
9.289933 3.404414 2.384031 6.000000
6.429958 3.994653 2.468346 24.000000
5.406507 3.466106 4.102492 12.000000
9.084002 3.345761 0.387010 33.000000
9.138304 3.363271 0.870142 36.000000
8.650745 3.129901 4.859761 9.000000
9.175188 3.372636 1.358596 34.000000
9.086692 3.334882 1.832813 11.000000
5.345407 3.360848 2.796306 18.000000
5.693408 3.618994 3.836770 13.000000
5.572206 3.484052 2.521500 28.000000
6.607841 2.425879 2.476808 28.000000
9.026511 3.244387 4.463208 6.000000
6.433867 3.969850 2.465470 23.000000
9.169115 3.342556 0.872167 36.000000
6.624045 2.408650 2.480182 30.000000
5.376711 3.357200 2.807096 13.000000
8.677682 3.109473 4.869634 7.000000
9.093049 3.305595 1.832312 11.000000
9.110128 3.323547 0.387789 41.000000
5.580316 3.465341 2.520572 25.000000
5.702066 3.599997 3.835433 13.000000
9.300192 3.375835 2.384251 4.000000
5.416203 3.448915 4.102075 15.000000
6.778358 2.470304 2.139972 18.000000
9.205909 3.351763 1.361690 34.000000
9.245932 3.334050 1.366094 26.000000
5.604417 3.456288 2.526621 36.000000
5.431616 3.435261 4.105901 15.000000
6.797573 2.453543 2.143701 20.000000
6.640205 2.391343 2.483557 25.000000
6.435234 3.943585 2.461689 23.000000
5.699489 3.574128 3.826801 11.000000
5.398616 3.347681 2.813141 11.000000
8.728880 3.097390 4.892862 6.000000
9.191434 3.318678 0.873452 25.000000
9.161442 3.298318 1.843809 7.000000
9.283948 3.314059 3.997841 6.000000
9.138086 3.301872 0.388636 37.000000
9.164113 3.279365 0.389414 38.000000
9.277515 3.313134 1.369318 30.000000
5.616457 3.439884 2.527436 20.000000
8.751563 3.075140 4.900433 6.000000
9.149114 3.262279 1.839723 7.000000
6.660790 2.375499 2.488544 27.000000
9.218394 3.296321 0.875146 23.000000
6.436507 3.917332 2.457905 15.000000
5.704275 3.552839 3.823030 11.000000
6.794060 2.428730 2.140552 15.000000
5.709734 3.532002 3.819746 19.000000
9.189144 3.256395 0.390159 43.000000
5.444979 3.397146 4.100823 8.000000
8.779231 3.054500 4.910766 5.000000
9.210068 3.251856 1.849787 4.000000
9.314676 3.294008 1.373327 19.000000
6.783194 2.401437 2.135201 16.000000
6.441782 3.893533 2.455629 21.000000
9.248127 3.274809 0.877087 24.000000
6.685812 2.361095 2.495145 20.000000
5.638116 3.429184 2.532438 36.000000
6.443680 3.867831 2.452149 20.000000
5.713616 3.510287 3.815490 14.000000
6.760406 2.370206 2.126275 25.000000
6.703647 2.344136 2.499167 19.000000
8.847203 3.047428 4.943213 7.000000
9.284994 3.245936 1.862547 4.000000
5.460261 3.383361 4.104650 12.000000
9.343410 3.238444 4.011050 4.000000
9.218843 3.234976 0.391077 40.000000
9.278757 3.253514 0.879117 25.000000
9.333998 3.268588 1.374858 29.000000
5.659760 3.418405 2.537443 33.000000
5.466793 3.364270 4.102113 5.000000
6.768442 2.349647 2.126703 14.000000
9.305571 3.230767 0.880819 33.000000
9.351375 3.242434 1.376126 21.000000
6.451246 3.845517 2.450781 22.000000
5.657138 3.393302 2.531980 27.000000
5.705415 3.481414 3.803453 16.000000
9.298508 3.218640 1.863484 7.000000
9.349597 3.208516 4.009794 8.000000
9.248499 3.213401 0.391996 59.000000
6.751024 2.337110 2.513838 22.000000
5.666568 3.375303 2.531750 28.000000
6.466162 3.827478 2.452127 12.000000
6.790993 2.333943 2.131533 21.000000
5.466713 3.341244 4.094802 10.000000
9.283790 3.193565 0.393112 34.000000
9.332334 3.207854 0.882517 33.000000
5.691836 3.449489 3.788009 9.000000
9.383709 3.221251 1.379486 30.000000
6.783164 2.324677 2.523024 23.000000
9.313359 3.171637 0.394029 44.000000
8.928232 2.983356 4.973310 6.000000
9.362824 3.186072 0.884546 33.000000
6.826968 2.315946 2.536406 21.000000
9.404718 3.196125 1.381275 22.000000
5.669080 3.412361 3.766728 6.000000
9.211086 3.088307 4.521604 11.000000
6.798918 2.313263 2.131960 25.000000
9.374924 3.152955 4.012815 9.000000
5.631321 3.331477 2.512326 17.000000
6.478551 3.807955 2.452567 17.000000
6.879774 2.309945 2.553020 16.000000
5.666517 3.387321 3.758580 11.000000
9.431985 3.167248 1.884213 7.000000
5.659251 3.324309 2.520124 24.000000
8.952332 2.960824 4.981812 8.000000
6.488396 3.786990 2.452105 22.000000
9.435074 3.174046 1.384380 10.000000
9.346677 3.150847 0.395085 35.000000
9.401783 3.166987 0.887321 28.000000
6.809522 2.293479 2.133214 19.000000
6.822812 2.274549 2.135296 22.000000
5.657055 3.358383 3.746053 9.000000
6.983912 2.320333 2.588032 14.000000
9.376157 3.128640 0.396009 34.000000
9.444657 3.145023 1.384603 10.000000
6.506462 3.770713 2.454662 25.000000
7.229856 2.393436 3.108933 5.000000
9.431243 3.144591 0.889275 35.000000
5.637528 3.288691 2.506632 18.000000
6.829644 2.253477 2.135449 28.000000
5.662613 3.338248 3.743254 15.000000
9.242006 3.004310 4.523918 13.000000
9.462549 3.122639 0.891392 26.000000
9.475840 3.122986 1.387838 11.000000
9.405589 3.106261 0.396932 26.000000
7.047631 2.317043 2.608525 13.000000
6.512868 3.747789 2.452992 15.000000
7.237023 2.371126 3.109097 12.000000
5.650711 3.273077 2.508147 17.000000
9.430215 3.082191 0.397687 33.000000
9.570916 3.115498 1.906040 6.000000
9.479605 3.091989 1.387273 6.000000
9.491914 3.099904 0.893345 24.000000
7.055480 2.295566 2.609006 19.000000
6.525019 3.728116 2.453434 9.000000
7.233495 2.345410 3.104827 14.000000
6.849232 2.236473 2.139457 15.000000
5.671136 3.319841 3.742400 13.000000
5.631177 3.239041 2.495700 30.000000
5.654857 3.229366 2.501754 31.000000
7.229878 2.319749 3.100558 22.000000
6.853199 2.214456 2.138786 27.000000
5.673522 3.297968 3.737656 14.000000
6.532111 3.705634 2.452067 14.000000
9.538322 3.082474 0.896785 15.000000
9.460497 3.059834 0.398647 28.000000
7.076807 2.278342 2.614331 20.000000
9.487870 3.036443 0.399510 31.000000
9.512367 3.038094 1.389688 3.000000
5.941113 3.402133 3.449819 8.000000
5.682674 3.279985 3.737290 18.000000
7.220850 2.292492 3.094073 12.000000
7.360779 2.327785 3.611964 8.000000
7.019487 2.236511 2.591571 11.000000
6.543298 3.685460 2.452210 12.000000
6.871778 2.197041 2.142521 14.000000
5.658858 3.208688 2.499431 26.000000
9.546689 3.052842 0.896930 22.000000
6.549410 3.662490 2.450541 8.000000
5.695585 3.264101 3.739357 27.000000
5.670177 3.192069 2.500249 33.000000
6.886639 2.178382 2.145155 20.000000
9.573042 3.028797 0.898641 23.000000
9.517098 3.013486 0.400438 29.000000
5.932534 3.373284 3.439349 13.000000
6.986399 2.202568 2.577524 21.000000
7.360775 2.302948 3.608807 14.000000
7.197513 2.260925 3.081673 8.000000
7.352855 2.275746 3.601908 5.000000
5.696252 3.183487 2.507352 25.000000
6.899612 2.159079 2.147238 20.000000
9.543409 2.989479 0.401265 35.000000
9.599339 3.004601 0.900350 27.000000
7.182941 2.232214 3.072966 15.000000
6.997525 2.182373 2.579296 22.000000
5.705399 3.246462 3.739477 18.000000
6.549584 3.636316 2.446757 8.000000
5.949757 3.358824 3.443449 18.000000
7.507841 2.287920 4.163685 10.000000
6.548820 3.609733 2.442672 12.000000
7.335257 2.245754 3.590438 8.000000
6.990473 2.156673 2.574611 12.000000
5.717452 3.230069 3.741058 20.000000
7.153138 2.199074 3.057977 12.000000
9.571575 2.965941 0.402162 23.000000
5.945704 3.332653 3.435628 9.000000
6.909773 2.138894 2.148495 26.000000
9.815584 3.028297 1.945036 5.000000
5.714913 3.170766 2.511313 22.000000
9.623672 2.979712 0.901898 20.000000
9.651029 2.951699 1.404756 7.000000
9.604473 2.943720 0.403232 30.000000
7.124092 2.166413 3.043357 11.000000
9.648896 2.955007 0.903532 32.000000
6.930007 2.121711 2.152784 21.000000
5.720347 3.150862 2.509690 29.000000
5.735586 3.217001 3.746532 14.000000
6.993309 2.134027 2.573478 19.000000
5.961247 3.317271 3.438847 19.000000
7.335858 2.221331 3.587697 12.000000
7.494230 2.258750 4.152797 6.000000
6.533672 3.575540 2.433454 10.000000
9.665634 2.923701 1.405771 5.000000
7.008778 2.115121 2.576866 26.000000
9.679790 2.931865 0.905660 30.000000
9.635407 2.920735 0.404233 41.000000
5.968861 3.297550 3.437650 11.000000
5.741418 3.139337 2.514701 26.000000
7.487328 2.231662 4.145595 10.000000
5.746022 3.199666 3.747141 11.000000
7.110068 2.138396 3.035017 11.000000
7.312814 2.190002 3.573731 11.000000
6.952964 2.105232 2.157900 26.000000
7.291396 2.159334 3.560594 5.000000
5.757176 3.182707 3.748236 8.000000
9.667251 2.897861 0.405268 39.000000
7.638974 2.239511 4.752516 5.000000
6.971273 2.087274 2.161638 20.000000
7.104863 2.113074 3.030373 21.000000
9.712545 2.909114 0.907953 24.000000
5.735156 3.113215 2.508187 16.000000
9.688718 2.898150 1.407966 12.000000
7.026922 2.096929 2.581223 14.000000
5.981946 3.280776 3.439544 15.000000
5.752832 3.099831 2.511802 22.000000
6.986768 2.068433 2.164552 22.000000
5.768280 3.165719 3.749332 16.000000
5.980730 3.256371 3.433490 19.000000
7.629023 2.211253 4.742587 9.000000
9.719352 2.874719 1.411215 5.000000
7.048660 2.079708 2.586874 15.000000
7.468974 2.176453 4.128883 12.000000
7.106714 2.089871 3.028686 20.000000
7.235764 2.119056 3.531243 19.000000
9.741425 2.885094 0.909920 33.000000
9.699045 2.874838 0.406306 25.000000
9.733669 2.852482 0.407448 38.000000
9.726116 2.844279 1.411183 8.000000
5.984973 3.234941 3.430526 15.000000
7.431039 2.140900 4.105086 6.000000
7.078549 2.064713 2.595433 11.000000
7.242960 2.096989 3.531824 9.000000
5.754704 3.078123 2.508782 36.000000
7.014228 2.052959 2.171049 16.000000
9.781740 2.864240 0.912881 35.000000
7.119216 2.069728 3.031435 10.000000
5.779334 3.148694 3.750429 13.000000
7.538371 2.182186 1.910853 16.000000
5.979611 3.208508 3.422263 10.000000
9.768250 2.829936 0.408590 34.000000
7.603835 2.153596 4.719696 10.000000
7.096571 2.046211 2.599793 12.000000
7.031485 2.034454 2.174515 21.000000
7.135240 2.050530 3.035664 15.000000
7.256219 2.076611 3.535316 7.000000
9.812435 2.840430 0.915016 30.000000
5.790338 3.131628 3.751526 16.000000
7.368170 2.098683 4.067919 12.000000
5.768140 3.062470 2.510651 27.000000
9.836361 2.814551 0.916570 25.000000
5.773207 3.042465 2.509027 33.000000
9.800858 2.806645 0.409664 30.000000
7.105429 2.025066 2.600923 22.000000
7.369280 2.074537 4.065320 6.000000
7.054247 2.017404 2.179635 17.000000
5.805163 3.116544 3.755055 6.000000
5.979715 3.185031 3.417090 9.000000
7.258027 2.053006 3.533401 12.000000
7.162849 2.034475 3.044699 15.000000
9.784214 2.795937 1.417290 5.000000
7.547809 2.113036 4.681972 6.000000
7.082530 2.001774 2.186410 19.000000
9.806015 2.769546 1.419359 7.000000
5.787384 3.027151 2.511246 23.000000
7.372880 2.051106 4.064105 9.000000
9.833416 2.783189 0.410741 31.000000
7.132473 2.008917 2.608515 16.000000
7.546717 2.134356 1.910057 12.000000
7.270286 2.032292 3.536477 7.000000
5.966185 3.154581 3.404407 10.000000
9.873663 2.792299 0.919285 27.000000
7.182365 2.016061 3.050409 15.000000
7.519928 2.080512 4.661426 4.000000
7.096878 1.982210 2.189052 23.000000
7.283367 2.011777 3.539970 15.000000
5.804862 3.013489 2.514864 21.000000
5.967690 3.132040 3.400119 18.000000
9.865923 2.759587 0.411822 27.000000
7.201837 1.997564 3.056119 21.000000
9.908038 2.769081 0.921757 27.000000
7.518380 2.101588 1.901794 18.000000
7.512764 2.053772 4.653514 5.000000
7.370411 2.026077 4.059664 6.000000
9.806716 2.737300 1.418542 8.000000
7.487153 2.022234 4.634483 6.000000
5.826497 3.001849 2.520229 28.000000
9.849409 2.716485 1.423506 6.000000
7.105603 1.961066 2.190041 16.000000
7.383295 2.005175 4.063521 6.000000
7.310448 1.994946 3.550118 5.000000
9.903200 2.737111 0.413073 35.000000
9.939479 2.744882 0.923981 39.000000
7.533149 2.080694 1.904019 14.000000
5.963518 3.106662 3.392737 12.000000
7.235250 1.958811 3.065323 7.000000
7.410710 1.988027 4.075216 4.000000
9.972789 2.721009 0.926368 32.000000
9.931746 2.712075 0.414017 34.000000
5.954447 3.078897 3.382702 17.000000
7.513996 2.050666 1.898033 19.000000
7.322544 1.974011 3.553195 15.000000
7.491477 1.998703 4.633643 6.000000
7.124480 1.942595 2.194062 22.000000
9.876745 2.691304 1.426366 5.000000
5.840572 2.986322 2.522450 27.000000
7.538979 2.032457 1.902766 20.000000
7.150748 1.925991 2.200289 26.000000
9.913604 2.668530 1.430543 9.000000
5.953281 3.055244 3.377086 18.000000
5.859644 2.973241 2.526768 34.000000
7.437231 1.970515 4.086451 8.000000
7.331062 1.952109 3.554609 12.000000
7.524138 1.982496 4.649987 6.000000
9.966025 2.688439 0.415168 34.000000
9.998323 2.664145 0.416255 26.000000
6.222941 3.145880 3.086533 18.000000
7.469733 1.954419 4.100917 6.000000
7.153728 1.903218 2.199625 13.000000
7.515873 2.001615 1.895868 28.000000
9.933153 2.641071 1.432358 9.000000
5.876168 2.958846 2.530040 24.000000
5.956041 3.033643 3.373680 17.000000
7.546737 1.963573 4.660268 4.000000
7.351847 1.933366 3.561849 6.000000
5.896028 2.946014 2.534709 26.000000
5.964356 3.014827 3.373367 10.000000
9.958386 2.614990 1.434962 12.000000
7.553390 1.940525 4.660948 18.000000
7.542623 1.983782 1.901060 21.000000
9.969567 2.584670 4.182185 5.000000
7.479838 1.932481 4.103395 12.000000
6.236531 3.128670 3.088648 25.000000
6.272240 3.093579 2.292179 9.000000
5.908277 2.929397 2.536233 28.000000
7.513983 1.916495 4.118783 7.000000
7.543853 1.959311 1.900091 29.000000
8.206209 3.987129 0.158619 63.000000
5.975031 2.997159 3.374378 11.000000
7.589282 1.924708 4.679317 8.000000
6.251726 3.112196 3.091556 20.000000
9.994118 2.591448 1.439011 15.000000
7.631853 1.910339 4.701732 4.000000
6.256132 3.090469 3.089314 20.000000
5.923857 2.914362 2.539156 27.000000
8.230962 3.967825 0.158951 66.000000
7.566728 1.940307 1.904371 9.000000
5.983233 2.978283 3.374064 19.000000
8.264602 3.983179 0.613148 53.000000
6.269534 3.068422 2.288082 13.000000
8.239934 3.985942 1.997194 20.000000
7.533455 1.896719 4.126333 7.000000
5.986529 2.957058 3.371101 14.000000
7.640022 1.887438 4.703425 7.000000
8.261101 3.950984 0.159349 59.000000
8.290227 3.964097 0.614233 63.000000
8.606151 2.176172 1.694306 6.000000
6.258807 3.067966 3.086282 20.000000
5.944474 2.901696 2.544178 21.000000
7.609406 1.926118 1.913447 28.000000
8.328128 3.984933 1.074556 30.000000
6.320973 3.069098 2.303035 24.000000
8.257290 3.963072 1.998620 11.000000
8.387622 3.984522 1.551011 52.000000
5.963376 2.888124 2.548501 29.000000
8.322147 3.947844 0.615735 72.000000
6.263892 3.046654 3.084437 12.000000
7.572622 1.892264 1.903350 17.000000
7.649802 1.864900 4.706129 7.000000
8.286683 3.931876 0.159695 56.000000
8.351906 3.964747 1.076158 41.000000
6.002696 2.942039 3.375208 15.000000
8.276358 3.940956 2.000457 12.000000
6.300914 3.035748 2.292892 34.000000
8.642094 2.128687 1.699025 8.000000
8.424738 3.991126 2.525126 12.000000
9.750022 2.359408 4.675039 10.000000
8.313137 3.913043 0.160050 45.000000
8.286497 3.914614 2.000230 6.000000
6.025310 2.930013 3.382850 16.000000
8.381056 3.946935 1.078408 47.000000
6.307478 3.015051 2.292121 34.000000
5.974618 2.870864 2.549677 23.000000
7.596275 1.873240 1.907860 16.000000
6.261436 3.021795 3.079026 20.000000
8.348612 3.928891 0.616878 56.000000
8.416701 3.966555 1.554196 41.000000
8.402947 3.925664 1.079792 32.000000
6.333862 3.003571 2.298306 17.000000
8.376854 3.910649 0.618141 52.000000
8.423623 3.959071 2.521498 19.000000
6.047095 2.917495 3.390051 14.000000
8.452929 3.951750 1.558644 31.000000
6.262213 2.998538 3.075199 26.000000
7.596204 1.848456 1.906664 17.000000
6.001099 2.860686 2.557147 29.000000
8.319659 3.898898 2.005363 10.000000
8.675279 2.108448 1.704264 6.000000
8.335918 3.892418 0.160363 45.000000
6.040329 2.856281 2.569864 20.000000
8.477462 3.931453 1.561046 44.000000
6.347247 2.985993 2.299957 30.000000
6.063985 2.902603 3.394603 21.000000
8.428405 3.905965 1.081613 33.000000
8.335002 3.874897 2.006377 12.000000
8.420632 3.926274 2.517364 13.000000
8.362290 3.873370 0.160723 74.000000
7.598900 1.824375 1.906154 18.000000
6.243756 2.966418 3.062259 14.000000
8.402336 3.891051 0.619228 58.000000
6.059150 2.842298 2.574190 21.000000
8.453609 3.909959 2.523667 15.000000
6.084094 2.889151 3.400923 18.000000
6.245173 2.943670 3.058830 12.000000
7.589191 1.797447 1.902675 15.000000
8.428686 3.871753 0.620378 56.000000
6.364918 2.970346 2.303121 34.000000
7.372766 1.730031 3.098603 5.000000
8.452913 3.885746 1.083328 48.000000
8.389535 3.854616 0.161095 59.000000
8.513644 3.916344 1.565501 50.000000
8.368989 3.859335 2.011723 15.000000
9.810678 2.278511 4.694458 7.000000
9.836074 2.252522 4.703429 5.000000
6.064297 2.822002 2.572922 23.000000
8.418571 3.836524 0.161486 59.000000
8.472846 3.863353 1.084497 23.000000
6.376478 2.951848 2.304167 38.000000
8.454999 3.852302 0.621525 62.000000
8.390470 3.837955 2.014179 18.000000
6.098477 2.872959 3.404149 9.000000
7.545217 1.762770 1.890973 10.000000
6.233989 2.915194 3.049454 7.000000
8.537205 3.895362 1.567744 45.000000
8.561621 3.874669 1.570146 54.000000
6.100120 2.815569 2.584243 33.000000
8.506346 3.846929 1.087296 47.000000
7.554292 1.740347 1.892058 21.000000
6.369726 2.925100 2.298860 39.000000
8.475801 3.830290 0.622314 54.000000
8.442093 3.815847 0.161814 63.000000
6.225198 2.887949 3.041266 14.000000
9.871165 2.228559 4.716978 6.000000
8.416367 3.818469 2.017667 23.000000
8.367862 3.886950 4.629285 5.000000
6.211277 2.858541 3.030701 25.000000
8.472886 3.798319 0.162231 50.000000
8.458326 3.806015 2.024871 18.000000
7.554751 1.716011 1.891090 32.000000
8.502939 3.811033 0.623526 38.000000
8.529817 3.825952 1.088905 28.000000
8.588696 3.855088 1.573025 35.000000
8.404863 3.872662 4.643182 9.000000
6.171876 2.825033 2.610254 18.000000
6.387249 2.909304 2.302025 24.000000
8.495405 3.777040 0.162555 46.000000
8.534610 3.793653 0.625039 47.000000
6.227417 2.842722 3.034404 15.000000
6.411708 2.896514 2.307611 24.000000
8.554151 3.805272 1.090624 32.000000
8.613019 3.834197 1.575434 36.000000
6.320812 2.868297 2.667745 6.000000
8.494912 3.790988 2.030841 22.000000
7.571302 1.695231 1.894006 22.000000
9.928082 2.145399 4.735165 5.000000
6.215816 2.814550 3.025026 23.000000
8.515339 3.768719 2.033096 19.000000
8.640920 3.814742 1.578471 27.000000
8.585734 3.787621 1.093211 45.000000
8.558016 3.772516 0.626011 44.000000
8.521544 3.757225 0.162919 52.000000
6.407343 2.870958 2.303213 28.000000
8.743132 3.880402 2.591096 8.000000
7.586842 1.674139 1.896692 13.000000
6.425610 2.855328 2.306680 36.000000
6.227640 2.796802 3.026746 10.000000
8.585042 3.752838 0.627223 44.000000
8.517743 3.738593 2.031225 13.000000
8.610901 3.767050 1.095036 36.000000
7.603274 1.653160 1.899607 25.000000
9.929257 2.156212 1.420473 7.000000
8.671505 3.796312 1.581982 26.000000
8.438709 3.794524 4.643313 9.000000
8.794777 3.870755 2.602754 7.000000
8.548563 3.737669 0.163293 42.000000
6.403272 2.857675 2.694602 14.000000
7.632995 1.634905 1.905723 17.000000
8.637850 3.747162 1.097083 33.000000
8.528138 3.711974 2.031213 10.000000
6.435945 2.848315 2.704537 22.000000
6.236888 2.777923 3.027278 21.000000
8.692067 3.773487 1.583760 33.000000
9.954168 2.129553 1.423215 5.000000
8.818896 3.849020 2.606521 5.000000
8.624881 3.738532 0.629277 63.000000
8.571860 3.716435 0.163629 36.000000
6.421085 2.829816 2.302282 21.000000
8.600635 3.697443 0.164031 59.000000
8.608703 3.715158 2.047297 4.000000
8.650002 3.717810 0.630376 47.000000
9.942125 2.095143 1.420946 9.000000
6.248609 2.760111 3.029000 19.000000
8.713479 3.750967 1.585698 42.000000
6.460011 2.835093 2.710975 21.000000
8.859868 3.834383 2.615131 7.000000
8.662925 3.726382 1.098914 21.000000
7.647420 1.613351 1.908185 16.000000
6.433993 2.811859 2.303936 34.000000
6.254372 2.739715 3.027947 19.000000
8.899054 3.818765 2.623231 6.000000
9.995755 2.031727 4.756091 5.000000
6.411752 2.778960 2.293483 23.000000
7.664645 1.592292 1.911332 26.000000
8.704456 3.712389 1.102704 30.000000
8.623840 3.675974 0.164368 42.000000
6.493538 2.825777 2.721262 15.000000
8.739389 3.730247 1.588424 28.000000
8.670476 3.695024 0.631173 38.000000
9.965901 2.068130 1.423556 4.000000
8.651615 3.656297 0.164757 53.000000
6.407823 2.753965 2.289385 15.000000
8.697344 3.674811 0.632389 54.000000
6.489096 2.800239 2.716155 20.000000
8.763433 3.708627 1.590833 41.000000
7.686584 1.572079 1.915621 27.000000
8.727628 3.690524 1.104316 41.000000
8.799026 3.732164 2.086074 4.000000
6.273591 2.725037 3.033236 16.000000
6.505298 2.783445 2.719446 16.000000
6.363333 2.712165 2.271362 9.000000
7.694145 1.548945 1.916483 28.000000
8.778298 3.683142 1.591665 27.000000
8.496550 3.664920 4.645159 5.000000
8.679349 3.636501 0.165149 40.000000
8.755341 3.670462 1.106475 34.000000
6.278395 2.704221 3.031786 18.000000
8.720479 3.652962 0.633367 51.000000
8.803142 3.661734 1.594239 23.000000
6.291603 2.686950 3.034303 17.000000
8.787613 3.652166 1.109182 31.000000
8.902962 3.711369 2.105057 4.000000
8.707969 3.616968 0.165556 46.000000
8.742637 3.630649 0.634289 60.000000
7.737961 1.532817 1.926036 11.000000
6.498962 2.757256 2.713641 26.000000
8.995070 3.761847 2.641424 8.000000
6.377668 2.695060 2.273621 13.000000
8.764740 3.608226 0.635211 50.000000
6.385785 2.675358 2.273761 23.000000
7.733931 1.507336 1.924156 13.000000
8.736549 3.597286 0.165963 49.000000
8.519296 3.612918 4.645991 7.000000
6.305612 2.669970 3.037216 17.000000
8.887883 3.673276 2.099275 7.000000
8.832512 3.642056 1.597603 13.000000
6.506390 2.736828 2.713434 30.000000
8.818014 3.632951 1.111672 32.000000
6.333166 2.658488 3.046474 28.000000
7.754693 1.486525 1.928220 19.000000
8.838235 3.609484 1.112961 28.000000
6.499009 2.710349 2.707277 15.000000
8.794202 3.588650 0.636611 39.000000
6.387660 2.653104 2.271780 25.000000
8.766950 3.578181 0.166390 46.000000
9.055332 3.721646 2.652539 7.000000
8.918036 3.653574 2.103812 11.000000
8.850853 3.617787 1.599067 25.000000
8.792670 3.557083 0.166764 46.000000
6.386807 2.629800 2.268891 22.000000
6.486318 2.681837 2.699019 13.000000
8.865783 3.588875 1.115124 41.000000
8.957236 3.637357 2.110416 5.000000
8.892977 3.602951 1.604644 11.000000
6.342852 2.639603 3.047405 26.000000
7.782104 1.466838 1.933887 14.000000
8.819916 3.567459 0.637773 47.000000
8.849296 3.547641 0.639181 44.000000
6.354185 2.621390 3.049131 14.000000
8.574850 3.543554 4.658959 10.000000
6.410659 2.616436 2.274482 25.000000
7.801809 1.445640 1.937727 18.000000
8.889587 3.566703 1.116856 37.000000
6.466558 2.650661 2.687962 19.000000
9.010063 3.626371 2.120123 5.000000
8.913050 3.579216 1.606431 5.000000
8.822993 3.537727 0.167198 45.000000
9.016457 3.596859 2.119299 5.000000
8.917044 3.545862 1.119024 32.000000
8.923868 3.551786 1.606637 5.000000
8.602117 3.523862 4.668004 9.000000
6.473658 2.630347 2.687755 24.000000
8.874918 3.526217 0.640348 37.000000
6.436261 2.603647 2.280680 24.000000
8.850488 3.517122 0.167600 37.000000
7.818582 1.423819 1.940881 18.000000
9.030046 3.570168 2.120121 7.000000
6.447645 2.585155 2.282030 21.000000
8.877001 3.496009 0.167985 32.000000
7.847754 1.404075 1.947005 13.000000
8.941671 3.523798 1.120859 33.000000
8.965897 3.536457 1.612215 7.000000
8.616850 3.499038 4.670407 7.000000
8.766294 3.531552 4.163208 10.000000
8.904213 3.506101 0.641750 35.000000
9.191591 3.645829 2.679375 7.000000
6.467618 2.604859 2.682293 19.000000
8.977382 3.505894 1.124003 44.000000
8.903467 3.474768 0.168369 43.000000
8.602327 3.462606 4.657324 7.000000
7.877839 1.384330 1.953357 14.000000
6.454534 2.564893 2.281864 27.000000
8.935328 3.486555 0.643272 43.000000
9.228733 3.627658 2.686974 8.000000
6.466718 2.581476 2.678930 19.000000
8.963676 3.503894 1.610199 4.000000
7.896361 1.362511 1.956965 14.000000
6.479147 2.551485 2.287757 22.000000
9.002843 3.483954 1.125951 34.000000
8.964540 3.466181 0.644679 57.000000
8.297142 1.432830 1.615951 3.000000
8.930818 3.453794 0.168769 32.000000
8.819923 3.490228 4.178673 11.000000
8.616044 3.437462 4.659287 9.000000
9.070696 3.521913 2.124864 7.000000
6.464863 2.557809 2.675217 16.000000
6.485040 2.530817 2.287290 29.000000
8.953445 3.430920 0.169114 43.000000
8.297537 1.406669 1.615415 8.000000
7.927311 1.342650 1.963549 5.000000
9.034766 3.464345 1.128664 45.000000
8.616315 3.407066 4.654170 11.000000
8.992777 3.445308 0.646026 52.000000
6.482168 2.541552 2.679207 22.000000
7.958210 1.322594 1.970134 17.000000
9.061999 3.442812 1.130830 42.000000
8.980703 3.409667 0.169513 52.000000
8.586359 3.365076 4.633121 7.000000
9.046955 3.440478 1.619667 5.000000
6.502457 2.514502 2.290761 27.000000
9.023777 3.425320 0.647553 48.000000
6.493305 2.522870 2.680746 15.000000
8.305615 1.381760 1.616322 11.000000
8.876801 3.449703 4.195730 4.000000
6.512279 2.507103 2.685436 12.000000
9.055492 3.411944 1.619551 4.000000
9.055676 3.405506 0.649140 50.000000
6.507341 2.493416 2.289990 33.000000
8.924068 3.436357 4.212987 4.000000
8.329158 1.359273 1.620118 18.000000
7.965984 1.298688 1.971226 6.000000
9.011667 3.389652 0.169957 49.000000
9.095713 3.423546 1.133761 36.000000
8.583878 3.333841 4.626672 16.000000
8.596383 3.308383 4.628191 12.000000
6.522440 2.487987 2.686625 21.000000
7.220002 2.723439 2.107945 12.000000
9.119125 3.400365 1.135493 47.000000
9.081916 3.383493 0.650369 40.000000
6.530027 2.478968 2.295281 19.000000
8.348759 1.336070 1.623194 13.000000
9.034142 3.366406 0.170304 38.000000
6.539269 2.459486 2.296026 20.000000
6.536940 2.470468 2.689567 11.000000
9.118424 3.365118 0.652264 41.000000
9.064077 3.345806 0.170743 42.000000
9.097348 3.363994 1.623600 6.000000
8.335240 1.307726 1.620130 11.000000
9.148087 3.379130 1.137884 40.000000
6.558432 2.455443 2.695309 8.000000
8.355670 1.284553 1.623387 15.000000
7.135432 2.642336 2.079940 18.000000
9.174199 3.356717 1.139946 43.000000
9.150210 3.344840 0.653857 40.000000
9.094915 3.325370 0.171192 29.000000
8.778883 1.305990 4.711089 6.000000
6.554722 2.442239 2.298893 31.000000
9.123296 3.341704 1.626495 6.000000
8.643023 3.265459 4.642737 8.000000
7.206176 2.642873 2.097699 10.000000
9.203071 3.335160 1.142335 44.000000
8.397443 1.264393 1.630619 10.000000
6.571028 2.425233 2.302064 25.000000
9.177258 3.322709 0.655147 35.000000
9.055346 3.359413 4.255455 6.000000
9.120061 3.302746 0.171573 43.000000
8.764249 1.276362 4.701585 7.000000
6.582535 2.441257 2.702104 19.000000
9.230960 3.313138 1.144617 34.000000
8.767967 1.249403 4.701782 9.000000
9.207080 3.301449 0.656621 25.000000
7.256947 2.635882 2.109848 5.000000
6.594471 2.410721 2.307660 31.000000
8.405097 1.239107 1.631529 15.000000
6.597796 2.423788 2.705396 16.000000
9.149869 3.281673 0.172013 41.000000
6.609801 2.393249 2.310529 25.000000
8.759302 1.220792 4.695511 4.000000
9.173968 3.258504 0.172389 48.000000
9.262549 3.292321 1.147340 40.000000
9.234971 3.279413 0.657978 46.000000
9.192441 3.271135 1.633762 5.000000
8.405864 1.212859 1.631175 15.000000
6.620956 2.409093 2.711843 21.000000
9.260928 3.256565 0.659213 40.000000
8.453316 1.193021 1.639496 5.000000
9.291283 3.270346 1.149734 35.000000
9.230299 3.252570 1.638722 6.000000
6.635879 2.379474 2.317036 24.000000
8.758456 1.193276 4.693398 5.000000
9.203683 3.237159 0.172831 35.000000
6.637905 2.392089 2.715838 14.000000
8.824350 3.209936 4.718317 7.000000
8.418840 1.161901 1.632635 12.000000
9.231709 3.221289 1.637501 5.000000
6.650230 2.361489 2.319603 20.000000
9.323732 3.249498 1.152566 44.000000
9.286835 3.233570 0.660448 48.000000
9.232409 3.215321 0.173262 41.000000
8.751367 1.164964 4.688050 6.000000
6.690670 2.352417 2.330963 23.000000
8.862104 3.162123 4.728447 8.000000
8.753864 1.137929 4.687783 5.000000
9.257298 3.192052 0.173649 36.000000
8.431064 1.137136 1.634449 10.000000
9.261062 3.199557 1.641034 8.000000
9.314577 3.211088 0.661804 45.000000
9.357081 3.228801 1.155508 44.000000
8.413954 1.108591 1.630840 6.000000
9.338483 3.187230 0.662922 33.000000
9.289431 3.177393 1.644413 10.000000
7.019362 2.430164 2.033540 7.000000
8.745723 1.109614 4.681973 9.000000
9.286872 3.170286 0.174096 47.000000
6.714878 2.337619 2.336867 23.000000
9.387564 3.207014 1.158126 35.000000
8.754220 1.083367 4.684942 9.000000
9.319245 3.149312 0.174579 34.000000
6.741767 2.323605 2.343682 21.000000
9.418000 3.185067 1.160745 41.000000
7.050507 2.416521 2.040329 29.000000
9.328055 3.158514 1.649537 6.000000
8.402605 1.080889 1.628315 13.000000
9.370855 3.166085 0.664586 35.000000
8.930136 3.093864 4.749851 8.000000
7.063280 2.396603 2.042013 21.000000
9.401292 3.144121 0.666128 46.000000
9.440840 3.160453 1.162487 39.000000
6.759593 2.306417 2.347465 15.000000
8.759992 1.056748 4.686523 6.000000
8.412639 1.055861 1.629768 16.000000
9.354429 3.129081 0.175094 20.000000
6.788237 2.292723 2.354888 20.000000
9.427885 3.120763 0.667428 29.000000
9.380069 3.105566 0.175497 34.000000
7.101393 2.408662 2.882797 7.000000
7.075998 2.376626 2.043697 33.000000
9.378939 3.111508 1.655345 7.000000
9.475903 3.139728 1.165653 33.000000
8.430412 1.031705 1.632668 15.000000
9.411363 3.083787 0.175971 27.000000
9.262056 3.115906 4.307514 5.000000
8.447145 1.007359 1.635389 15.000000
9.504304 3.116707 1.168056 24.000000
7.127302 2.392913 2.890309 8.000000
9.140394 1.054988 4.306394 6.000000
6.803273 2.274454 2.357763 17.000000
9.407114 3.088749 1.658728 8.000000
7.083145 2.354817 2.043850 20.000000
9.454424 3.097296 0.668732 37.000000
8.479448 0.984695 1.641005 21.000000
6.824609 2.258177 2.362762 22.000000
9.135320 1.026027 4.302846 17.000000
9.441657 3.061560 0.176436 35.000000
7.088384 2.332405 2.043492 28.000000
9.485662 3.075228 0.670341 26.000000
7.150509 2.376170 2.896772 21.000000
9.434298 3.065562 1.661954 7.000000
9.530759 3.092954 1.170242 33.000000
7.156741 2.353834 2.896575 13.000000
9.474767 3.040041 0.176934 44.000000
9.459546 3.041606 1.664861 8.000000
9.565691 3.071725 1.173413 32.000000
9.041645 3.008362 4.789618 7.000000
9.513997 3.052060 0.671766 31.000000
7.106451 2.314064 2.046709 27.000000
6.850446 2.243218 2.369278 17.000000
8.498975 0.960419 1.644270 14.000000
9.133763 0.997457 4.300966 7.000000
9.053198 2.981374 4.791146 9.000000
9.113133 0.966950 4.290327 7.000000
6.866263 2.224958 2.372459 14.000000
9.541329 3.028448 0.673131 25.000000
7.111561 2.291566 2.046351 29.000000
7.229045 2.369631 3.371712 5.000000
7.132560 2.321822 2.884461 16.000000
9.477198 3.015165 1.666500 13.000000
9.510696 3.019240 0.177467 36.000000
9.600582 3.050310 1.176584 25.000000
8.524301 0.936656 1.648622 17.000000
6.884761 2.207490 2.376550 20.000000
7.133216 2.274251 2.050592 20.000000
9.105068 0.937860 4.285526 5.000000
9.517413 2.995669 1.671950 9.000000
7.149344 2.302935 2.888471 18.000000
7.264130 2.356238 3.384577 8.000000
9.622136 3.024622 1.178224 21.000000
9.538945 2.995910 0.177912 38.000000
9.570513 3.005309 0.674620 23.000000
8.553478 0.913170 1.653699 13.000000
6.912320 2.192764 2.383676 21.000000
7.133893 2.273951 2.879861 6.000000
7.264174 2.331670 3.381557 12.000000
8.566938 0.887963 1.655881 10.000000
