# .PCD v0.7 - Point Cloud Data file format
VERSION 0.7
FIELDS x y z intensity
SIZE 4 4 4 4
TYPE F F F F
COUNT 1 1 1 1
WIDTH 1312
HEIGHT 1
VIEWPOINT 0 0 0 1 0 0 0
POINTS 1312
DATA ascii
3.804320 4.012990 4.102002 6.000000
3.212179 3.350973 4.253733 6.000000
6.292974 6.744073 4.282023 4.000000
4.651469 4.950799 4.033837 8.000000
3.777093 6.343795 4.185084 8.000000
3.470689 5.869227 4.339922 6.000000
4.683786 4.954666 4.048571 4.000000
3.490842 5.862187 4.342588 6.000000
3.227060 3.345901 4.259790 4.000000
3.779499 6.303801 4.166421 6.000000
6.286916 6.696270 4.264000 9.000000
3.813281 3.997811 4.098436 14.000000
6.487100 6.933095 2.288517 15.000000
3.806588 3.966350 4.078251 8.000000
3.521424 5.872466 4.358090 5.000000
3.778990 6.259377 4.144813 8.000000
3.251140 3.329755 4.264497 4.000000
3.790022 6.234365 4.135969 8.000000
4.706954 4.918378 4.042460 10.000000
6.495005 6.898994 2.283881 20.000000
3.822091 3.958135 4.081808 10.000000
6.281143 6.567914 4.219150 6.000000
4.750685 4.933707 4.066850 6.000000
6.506107 6.868443 2.280401 22.000000
3.648015 3.736094 4.308269 5.000000
3.824124 3.936003 4.071119 9.000000
3.826621 3.914472 4.061025 7.000000
6.554700 6.865214 2.786455 6.000000
3.785653 6.142055 4.090297 7.000000
6.551978 6.874516 2.288954 31.000000
3.573555 5.836947 4.355927 4.000000
6.537356 6.817164 2.276683 26.000000
3.792064 6.110439 4.077035 11.000000
3.824508 3.888370 4.046182 12.000000
6.577826 6.817386 2.283385 40.000000
3.000005 4.874296 4.070436 10.000000
4.797699 4.891639 4.068357 6.000000
3.316838 3.314730 4.296809 4.000000
3.833589 3.873764 4.043209 15.000000
6.581096 6.779025 2.277361 39.000000
4.830825 4.895298 4.083598 7.000000
3.704516 3.702009 4.320936 5.000000
3.020112 4.873401 4.077356 16.000000
3.830696 3.847158 4.027773 11.000000
6.351734 6.480638 4.212834 5.000000
3.587231 5.740081 4.308307 6.000000
3.832800 3.825725 4.017678 8.000000
3.805215 6.007612 4.031848 4.000000
6.587590 6.744189 2.272494 37.000000
3.035914 4.865505 4.078504 17.000000
4.842787 4.877405 4.081051 8.000000
3.816126 5.984167 4.023986 4.000000
6.589159 6.704519 2.266008 29.000000
3.337709 3.274761 4.284673 11.000000
4.869289 4.874111 4.090702 14.000000
3.059958 4.870688 4.090621 8.000000
4.882998 4.857941 4.089680 11.000000
3.852763 3.798757 4.014108 10.000000
4.649015 4.607125 4.352681 5.000000
6.570714 6.644838 2.252812 13.000000
3.078382 4.866803 4.095233 10.000000
3.100763 4.869045 4.105040 12.000000
4.907674 4.852635 4.097806 6.000000
3.830998 5.927008 4.001388 3.000000
3.848884 3.771711 3.998078 7.000000
3.858708 3.758206 3.996293 11.000000
6.038820 6.032246 2.060301 14.000000
3.119656 4.865700 4.110229 14.000000
3.759197 3.643171 4.319012 6.000000
6.016572 5.973245 2.046643 18.000000
4.965071 4.849532 4.120666 8.000000
3.924555 3.798996 4.052080 7.000000
3.139888 4.864342 4.117150 14.000000
3.061513 2.910018 4.297350 4.000000
4.700184 4.572890 4.360938 3.000000
6.541284 6.427391 3.194242 6.000000
4.999076 4.852884 4.136415 8.000000
3.768080 3.607215 4.303780 6.000000
6.384906 6.240587 4.145332 5.000000
3.157914 4.859484 4.121185 18.000000
6.026562 5.946560 2.043860 30.000000
3.176835 4.855927 4.126374 19.000000
6.076027 5.958706 2.054264 12.000000
3.767371 3.584449 4.290455 17.000000
5.035007 4.857868 4.153690 9.000000
3.778911 3.573413 4.291085 6.000000
5.067286 4.859100 4.167915 7.000000
3.724213 5.608665 4.285244 9.000000
3.197562 4.855025 4.133872 20.000000
3.467555 3.259112 4.360077 5.000000
6.523537 6.316126 3.676752 4.000000
6.078259 5.924419 2.048935 21.000000
3.758883 3.532677 4.256196 6.000000
3.215603 4.849961 4.137907 11.000000
6.105489 5.914549 2.051936 20.000000
3.729652 5.579665 4.271867 4.000000
5.115201 4.875037 4.194847 8.000000
3.237273 4.850263 4.146560 17.000000
5.153261 4.881248 4.213646 4.000000
3.760666 3.512688 4.246043 8.000000
3.735420 5.551385 4.259026 5.000000
6.178260 5.948436 2.069975 22.000000
3.786750 5.591762 3.830013 7.000000
3.760664 3.491143 4.233987 8.000000
6.163450 5.897838 2.059094 20.000000
3.490341 3.220561 4.351310 6.000000
3.745794 5.530115 4.251531 10.000000
5.179495 4.876050 4.222788 6.000000
3.021228 4.538082 4.316912 6.000000
3.254873 4.844380 4.150017 13.000000
3.760666 5.516801 3.786807 10.000000
3.758860 3.468057 4.220028 10.000000
4.115543 3.816266 4.163035 5.000000
6.242836 5.937247 2.079215 24.000000
3.276588 4.844520 4.158669 10.000000
5.220835 4.884864 4.244129 7.000000
6.597181 6.232434 3.674858 7.000000
3.026378 4.515753 4.304533 4.000000
3.774613 5.500935 3.783854 8.000000
3.748448 5.497668 4.235480 11.000000
3.751418 5.465954 4.219965 5.000000
3.767685 5.454940 3.760285 21.000000
5.256603 4.888190 4.260895 11.000000
6.349380 6.001623 2.108128 18.000000
3.298794 4.845245 4.167900 13.000000
3.761507 3.449198 4.211144 11.000000
3.320574 4.845207 4.176553 17.000000
3.765216 3.431396 4.203529 11.000000
3.177252 2.857381 4.347098 7.000000
3.766483 5.417621 3.742606 27.000000
3.736922 5.409256 4.185196 6.000000
6.551374 6.154681 2.168043 14.000000
5.289911 4.889003 4.275629 7.000000
6.600086 6.162447 2.177752 32.000000
3.744325 5.384597 4.175029 12.000000
5.306152 4.873924 4.276640 7.000000
3.771142 3.415682 4.198451 9.000000
3.799084 5.428879 3.758307 9.000000
6.557736 6.096972 3.119443 5.000000
3.343313 4.846425 4.186360 10.000000
3.363760 4.844197 4.193281 7.000000
3.807185 5.405100 3.749955 14.000000
3.739003 5.341953 4.150956 4.000000
6.609693 6.133569 2.174737 37.000000
5.343971 4.878539 4.294930 8.000000
3.774136 3.397376 4.190201 14.000000
3.205755 2.847658 4.362025 3.000000
3.386564 4.845234 4.203089 11.000000
6.607028 6.093474 2.167790 50.000000
3.745145 5.315964 4.139719 14.000000
5.405134 4.873939 4.319825 9.000000
3.782202 3.362861 4.176240 13.000000
3.171504 4.548860 4.390495 7.000000
4.726776 4.245337 4.225729 3.000000
6.535391 5.964988 3.082874 9.000000
6.608480 6.057400 2.162232 53.000000
6.171177 5.646389 2.458812 5.000000
3.415521 4.854853 4.220403 10.000000
4.398056 3.930368 4.373707 5.000000
3.739909 5.274140 4.116184 10.000000
4.753462 4.243046 4.237861 5.000000
6.529160 5.922682 3.071447 5.000000
3.742805 5.244086 4.101740 6.000000
4.410091 3.916863 4.373704 4.000000
3.779180 3.339468 4.161649 8.000000
3.438899 4.856347 4.230788 15.000000
6.620560 6.031203 2.160145 42.000000
6.608747 5.983438 2.150424 55.000000
3.736670 5.201716 4.077670 4.000000
3.454255 4.846445 4.231361 18.000000
6.514307 5.872874 3.056104 4.000000
3.174395 4.494053 4.356459 3.000000
3.778373 3.318167 4.149595 6.000000
5.468368 4.870490 4.346245 8.000000
3.775724 3.295377 4.135638 10.000000
6.613333 5.950772 2.146023 41.000000
5.483927 4.854269 4.346750 3.000000
3.739726 5.172439 4.063761 7.000000
3.473869 4.842463 4.237129 12.000000
6.520298 5.791753 3.532337 6.000000
3.733680 5.130899 4.040226 8.000000
3.779976 3.278716 4.129292 8.000000
3.491099 4.835098 4.240011 13.000000
4.832446 4.234331 4.273152 5.000000
6.608355 5.909701 2.138615 51.000000
3.725416 5.086720 4.014552 4.000000
6.513583 5.764438 3.030962 5.000000
3.507356 4.826352 4.241738 8.000000
6.189547 5.431086 4.338760 6.000000
6.610458 5.875183 2.133520 50.000000
3.775382 3.254485 4.113432 11.000000
3.773022 3.232325 4.100111 12.000000
3.529382 4.825456 4.250392 9.000000
6.607308 5.836197 2.126806 56.000000
6.516333 5.731319 3.024104 3.000000
4.655502 6.275314 4.427331 4.000000
3.704873 5.026322 3.976043 5.000000
6.523678 5.688210 3.505845 6.000000
6.610561 5.803064 2.122175 69.000000
6.175232 5.351817 4.305806 6.000000
3.767620 3.207704 4.083617 9.000000
3.551436 4.824471 4.259047 11.000000
3.188436 2.678484 4.236845 5.000000
3.738917 5.040036 3.995825 8.000000
3.756384 5.031255 3.997959 9.000000
6.610008 5.766767 2.116387 56.000000
3.218395 4.383004 4.305703 4.000000
3.572057 4.821429 4.265970 7.000000
3.549952 2.985285 4.250242 7.000000
3.769772 3.189641 4.075368 10.000000
6.539245 5.680698 3.018548 4.000000
6.223831 5.360610 4.328075 5.000000
3.777172 3.176076 4.072828 10.000000
3.589761 4.814380 4.269428 8.000000
6.190457 5.298859 4.293734 7.000000
4.706218 6.223191 4.420932 6.000000
3.567030 2.981027 4.259668 4.000000
3.780437 5.031192 4.007046 9.000000
6.611499 5.732441 2.111292 71.000000
6.543764 5.649494 3.012669 4.000000
6.203984 5.277553 4.291873 9.000000
3.771477 3.151583 4.056334 10.000000
6.614316 5.699430 2.106661 63.000000
3.792282 5.014861 4.003297 7.000000
3.628550 4.835337 4.297710 8.000000
3.575020 2.969131 4.258319 5.000000
3.778749 3.138027 4.053795 11.000000
3.597788 2.969455 4.274480 7.000000
6.614038 5.663925 2.101104 60.000000
3.759504 4.940033 3.953024 18.000000
3.646321 4.828096 4.301169 6.000000
3.297256 2.684822 4.325725 6.000000
3.777031 3.117071 4.041741 7.000000
3.737102 4.879534 3.913981 33.000000
3.672488 4.831838 4.314442 8.000000
6.606196 5.622168 2.093234 59.000000
6.534346 5.523395 3.465919 5.000000
3.755150 4.872066 3.917185 40.000000
5.979671 4.992524 4.105792 6.000000
6.597418 5.579885 2.085132 46.000000
3.313124 2.680896 4.335679 5.000000
6.507050 5.479868 2.965006 4.000000
3.760880 3.084383 4.014465 6.000000
3.701066 4.807932 4.313278 4.000000
3.319141 2.668962 4.332832 4.000000
6.604825 5.551482 2.082120 60.000000
6.548170 5.466556 3.455468 6.000000
3.772669 4.863865 3.919855 31.000000
3.769125 3.071859 4.013194 8.000000
6.607640 5.519344 2.077720 59.000000
6.540633 5.426298 3.442784 4.000000
3.666183 2.951080 4.312185 10.000000
3.334449 2.664483 4.342074 4.000000
3.783929 4.847614 3.916106 39.000000
6.512210 5.416270 2.952271 4.000000
3.773725 3.056393 4.008117 7.000000
6.311547 5.262475 2.416070 7.000000
6.609571 5.486620 2.073089 57.000000
6.248554 5.177515 2.386220 10.000000
6.519311 5.374921 3.423015 6.000000
3.763816 3.029287 3.987818 10.000000
3.729990 4.784503 4.312692 4.000000
3.813931 4.855249 3.931610 24.000000
3.680989 2.944445 4.318918 5.000000
3.736074 4.762128 4.302874 9.000000
6.299243 5.187023 2.399326 12.000000
3.840345 4.858108 3.943371 4.000000
6.612866 5.455174 2.068920 54.000000
3.765245 3.011451 3.979570 10.000000
6.485432 5.327010 2.925503 7.000000
3.345766 2.640064 4.335670 6.000000
6.471725 5.282580 2.912119 7.000000
6.072937 4.930264 3.634924 8.000000
3.322713 4.245802 4.269161 4.000000
6.621294 5.428079 2.066371 58.000000
3.741549 4.739120 4.292479 8.000000
3.875762 4.872086 3.964222 9.000000
6.275001 5.134829 2.384259 17.000000
6.429181 5.215055 2.886009 9.000000
3.753526 4.724430 4.289588 11.000000
6.631882 5.402827 2.064516 75.000000
6.234854 5.070105 2.363336 15.000000
6.161748 4.985452 3.212672 7.000000
6.087326 4.911046 3.634501 5.000000
5.201342 4.150774 4.424791 5.000000
6.217519 5.024392 2.351059 10.000000
6.312705 5.088503 2.827265 5.000000
6.148093 4.943267 3.197751 6.000000
6.637085 5.373275 2.061042 68.000000
6.094571 4.886103 3.629889 7.000000
3.927862 4.875849 3.986673 13.000000
3.777598 2.964749 3.963706 11.000000
3.758304 4.700788 4.278616 9.000000
3.715089 2.897714 4.316888 7.000000
6.097250 4.872415 4.113652 6.000000
3.806785 2.968850 3.984634 12.000000
6.112168 4.853693 4.113648 10.000000
6.199963 4.978834 2.338783 13.000000
6.174859 4.946163 2.759384 17.000000
6.155981 4.918594 3.194018 9.000000
6.643685 5.344962 2.058030 74.000000
3.758362 4.671438 4.262448 5.000000
3.949723 4.872311 3.993621 15.000000
6.116631 4.873048 3.634075 10.000000
3.730453 2.873073 4.314189 5.000000
6.125638 4.833827 4.112717 12.000000
6.590913 5.269261 2.036973 31.000000
3.761875 4.646573 4.250321 11.000000
6.152150 4.884685 3.184318 12.000000
3.970531 4.867375 3.999499 7.000000
6.167178 4.921448 2.320927 7.000000
6.197398 4.933090 2.762644 13.000000
6.128704 4.852011 3.632395 10.000000
6.163464 4.862919 3.182449 9.000000
3.999930 4.872803 4.013932 7.000000
6.179989 4.900718 2.320086 14.000000
6.140705 4.830945 3.630716 7.000000
6.186558 4.893528 2.751219 12.000000
6.150489 4.808173 3.627779 9.000000
6.193367 4.868102 2.747625 16.000000
4.021860 4.868980 4.020880 9.000000
3.398309 2.565112 4.331389 6.000000
6.189715 4.877578 2.318130 9.000000
3.832102 2.932297 3.982725 6.000000
6.158672 4.798887 4.115029 7.000000
6.168132 4.835975 3.177225 16.000000
5.031514 6.053114 4.459626 4.000000
3.766995 4.595016 4.224336 8.000000
3.770151 4.570223 4.212209 9.000000
6.175620 4.811330 3.173492 11.000000
3.079787 3.803039 4.306193 6.000000
6.193375 4.837443 2.741095 14.000000
6.167360 4.790959 3.629033 18.000000
4.056777 4.880655 4.040662 4.000000
3.410097 2.557636 4.336364 4.000000
3.473846 4.247669 4.344609 6.000000
6.176865 4.782689 4.117346 16.000000
3.890295 2.957989 4.033464 7.000000
6.206916 4.860347 2.318964 13.000000
3.768493 4.539804 4.194887 15.000000
6.205946 4.816685 2.740112 17.000000
6.196952 4.797480 3.176844 8.000000
6.233164 4.850134 2.323143 5.000000
4.077698 4.875319 4.046539 11.000000
3.838302 2.899881 3.970669 9.000000
4.704256 3.572961 4.380157 4.000000
6.185891 4.759400 4.113630 16.000000
3.491856 4.243061 4.350791 9.000000
6.168373 4.761477 3.621069 8.000000
3.742967 2.810229 4.288588 6.000000
6.190316 4.762040 3.166026 15.000000
3.125512 3.811413 4.337137 4.000000
6.194129 4.735563 4.109450 11.000000
3.736170 2.787240 4.271076 6.000000
6.186552 4.745300 3.623160 16.000000
6.260925 4.840982 2.327882 8.000000
3.772971 4.516954 4.184492 10.000000
6.217699 4.795319 2.738803 11.000000
4.104069 4.876361 4.057765 11.000000
3.529903 4.236045 4.365632 6.000000
6.209317 4.746413 3.168260 17.000000
3.769982 4.485373 4.166016 7.000000
6.287167 4.830534 2.332062 10.000000
4.132671 4.879866 4.071130 7.000000
6.227879 4.772775 2.736842 14.000000
6.194581 4.721348 3.619387 16.000000
3.738765 2.771366 4.264339 6.000000
6.213563 4.720296 4.112695 4.000000
3.772113 4.460083 4.153312 9.000000
5.937274 6.800042 2.448092 10.000000
4.714354 3.512695 4.359377 4.000000
6.198179 4.694102 3.613100 26.000000
6.311878 4.818805 2.335684 8.000000
3.740108 2.754625 4.256255 9.000000
6.243995 4.754796 2.737490 20.000000
4.153105 4.873599 4.076473 13.000000
3.159905 3.805484 4.352276 5.000000
6.213505 4.719487 3.163035 23.000000
3.555825 4.214320 4.365623 7.000000
4.175742 4.869817 4.083955 7.000000
3.180741 3.806743 4.364784 4.000000
3.438684 2.497618 4.323555 4.000000
6.224251 4.697612 3.161167 15.000000
6.259410 4.694856 4.123824 5.000000
6.327395 4.800004 2.335959 11.000000
3.747347 2.742271 4.254906 5.000000
6.198766 4.664693 3.605136 8.000000
6.265335 4.740757 2.740424 28.000000
3.762472 4.421151 4.127908 13.000000
4.718639 3.493430 4.353439 3.000000
4.197842 4.865302 4.090902 13.000000
3.193857 3.798700 4.366756 4.000000
6.218593 4.663465 3.151094 7.000000
6.278337 4.720382 2.739767 13.000000
6.226861 4.655994 3.613092 8.000000
6.359725 4.793872 2.342371 9.000000
3.737811 2.717718 4.234700 15.000000
3.564155 4.198011 4.360051 7.000000
3.754317 4.357193 4.089801 10.000000
6.227997 4.627124 3.605548 9.000000
3.192357 3.773390 4.348972 4.000000
3.737144 2.699747 4.224595 14.000000
4.227161 4.868988 4.104802 9.000000
6.391308 4.787012 2.348504 10.000000
6.240309 4.649916 3.154820 12.000000
6.263259 4.679033 2.727037 8.000000
6.240377 4.620261 3.147731 7.000000
4.247083 4.861727 4.109610 5.000000
6.246544 4.611238 3.608058 5.000000
3.201963 3.761294 4.346335 3.000000
6.264683 4.650220 2.721486 6.000000
6.342299 4.666476 4.149797 6.000000
6.386706 4.753048 2.341527 13.000000
3.752140 4.327779 4.073057 6.000000
3.737603 2.682668 4.215838 8.000000
4.273143 4.861368 4.120301 10.000000
6.392765 4.727154 2.338455 25.000000
3.750892 4.299651 4.057467 8.000000
6.354439 4.645434 4.148402 6.000000
6.293370 4.641647 2.727683 6.000000
6.285907 4.624200 3.163390 5.000000
3.597491 4.159112 4.353853 7.000000
3.742806 2.669048 4.212468 9.000000
5.097564 5.763577 4.359925 3.000000
5.145356 5.781745 4.385445 4.000000
3.754359 4.277090 4.047072 19.000000
3.747357 2.654994 4.208426 11.000000
6.315202 4.627912 2.730942 5.000000
3.615395 4.153985 4.360036 7.000000
6.415747 4.713780 2.341519 25.000000
4.295318 4.856465 4.127248 10.000000
3.766921 4.264947 4.046492 11.000000
3.754275 2.642640 4.207077 8.000000
6.451892 4.709939 2.349326 11.000000
6.292696 4.581805 2.715276 7.000000
3.623457 4.137564 4.354464 5.000000
4.327059 4.862198 4.143286 15.000000
6.338882 4.585761 2.728978 5.000000
3.770757 4.243007 4.036674 6.000000
6.373887 4.570249 4.133543 4.000000
3.761151 2.630268 4.205728 15.000000
6.453874 4.681103 2.344860 20.000000
4.351544 4.859602 4.152373 12.000000
3.765560 2.616191 4.201685 6.000000
6.450745 4.624610 3.217077 8.000000
3.783755 4.231425 4.036671 7.000000
4.383976 4.865686 4.168946 5.000000
6.472878 4.664655 2.346529 13.000000
6.541066 4.675481 3.735389 6.000000
6.409968 4.577563 2.747245 5.000000
4.406833 4.860980 4.176428 6.000000
3.790157 4.212523 4.029739 7.000000
3.773567 2.604633 4.201683 17.000000
4.759179 3.324079 4.304749 4.000000
6.476991 4.613420 3.223040 6.000000
6.540574 4.644879 3.727008 6.000000
3.774834 2.588448 4.194273 10.000000
3.198397 3.597862 4.236337 5.000000
6.501061 4.612596 2.779874 7.000000
6.523282 4.640451 2.354332 7.000000
6.555533 4.625322 3.727423 5.000000
4.437679 4.864914 4.191397 10.000000
3.797219 4.168690 4.010106 8.000000
6.589478 6.996238 2.099552 46.000000
6.388824 4.463296 4.107546 4.000000
4.463445 4.863105 4.201552 10.000000
6.542360 4.599761 3.241307 6.000000
3.777260 2.573113 4.188210 14.000000
6.163939 4.290010 4.456392 5.000000
6.547817 4.585648 2.787699 5.000000
3.690000 4.060331 4.343925 4.000000
6.484837 4.553425 2.330617 11.000000
6.586019 6.949748 2.091760 47.000000
3.801706 4.148004 4.001443 7.000000
3.780238 2.558203 4.182820 10.000000
4.497273 4.869869 4.219195 7.000000
5.242798 5.642538 4.364302 4.000000
4.526579 4.871522 4.232560 10.000000
6.220428 6.535405 2.446714 6.000000
6.508224 4.540109 2.333961 8.000000
6.163880 4.234073 4.437582 4.000000
6.587060 6.908296 2.085441 52.000000
3.780095 2.541235 4.174063 8.000000
3.278396 3.620128 4.297569 6.000000
6.187509 4.222435 4.445202 4.000000
6.521261 4.482296 3.676722 8.000000
6.515808 4.515748 2.331726 7.000000
6.561499 4.523564 3.230109 6.000000
3.682364 4.002383 4.306180 5.000000
6.585157 4.551847 2.791608 5.000000
6.592650 6.871840 2.080595 44.000000
4.551896 4.868723 4.242181 7.000000
3.277308 3.596720 4.281761 3.000000
3.693021 3.989345 4.304320 12.000000
6.515395 4.485935 2.326703 7.000000
6.562333 4.494502 3.223766 5.000000
6.501990 4.439737 3.658287 5.000000
3.309706 3.609934 4.309416 9.000000
6.598077 6.835414 2.075750 45.000000
3.770365 2.501239 4.146447 15.000000
3.453640 2.273433 4.206904 3.000000
4.570286 4.858433 4.245385 7.000000
6.599936 6.795515 2.069852 42.000000
6.570019 4.482059 2.773654 4.000000
6.495048 4.442609 2.314706 10.000000
3.702025 3.974556 4.300604 15.000000
3.488244 2.280934 4.240324 5.000000
4.596792 4.856663 4.256075 15.000000
3.778019 2.489667 4.146445 5.000000
6.499084 4.393590 4.134442 4.000000
6.563817 4.465999 3.217796 7.000000
6.464966 4.392972 2.299362 23.000000
6.553179 6.731776 3.055078 5.000000
3.337940 3.596185 4.317311 5.000000
6.557919 4.444380 2.762882 9.000000
6.606398 6.760561 2.065427 39.000000
3.780073 2.474424 4.140382 7.000000
6.558376 6.753512 3.587782 7.000000
3.702370 3.950583 4.286991 9.000000
6.542130 4.421937 3.200638 9.000000
4.618083 4.849271 4.261953 5.000000
3.706918 3.931216 4.278326 5.000000
3.780830 2.458386 4.132972 14.000000
4.644052 4.846673 4.272109 8.000000
3.923580 4.125851 4.048754 5.000000
6.466474 4.365060 2.295175 16.000000
6.603794 6.716573 2.058267 55.000000
6.475875 4.359820 2.723068 5.000000
3.334045 3.569997 4.298212 5.000000
6.346335 6.466118 2.456777 6.000000
3.783387 2.443571 4.127582 9.000000
3.535121 2.265458 4.271609 5.000000
4.664765 4.838489 4.277452 12.000000
6.460243 4.281230 4.084784 9.000000
3.367676 3.583869 4.327183 9.000000
6.582706 4.402492 2.761896 5.000000
3.707053 3.907302 4.264712 6.000000
6.505353 4.362326 2.304097 32.000000
6.529775 4.355456 3.181613 8.000000
6.601670 6.673360 2.051317 46.000000
3.009760 3.240925 4.323515 4.000000
6.366821 6.447310 2.457030 6.000000
6.361368 6.402409 2.447450 7.000000
3.719564 3.896485 4.265327 8.000000
3.785266 2.428364 4.121519 13.000000
3.025078 3.237440 4.331179 4.000000
6.552502 6.608360 3.026543 4.000000
6.565852 4.373774 2.320550 50.000000
6.597273 6.628146 2.043736 50.000000
4.685473 4.830224 4.282795 10.000000
3.777116 2.406807 4.104681 11.000000
6.193046 4.034091 4.386228 9.000000
6.576836 4.352024 2.319710 57.000000
3.729320 3.882797 4.262849 8.000000
6.380296 6.382184 2.447186 14.000000
6.502897 4.267017 3.614283 7.000000
4.710898 4.826711 4.292417 11.000000
6.549205 6.564657 3.015805 5.000000
6.499028 4.277557 3.154011 5.000000
6.599582 6.589925 2.038259 45.000000
3.394272 3.568054 4.333103 5.000000
3.772617 2.387697 4.091883 9.000000
6.499983 4.236637 3.605483 7.000000
6.592695 6.542805 2.030047 69.000000
4.733976 4.820679 4.299899 12.000000
3.733016 3.862876 4.253566 11.000000
6.374488 6.337397 2.437606 13.000000
6.047518 3.964327 2.524328 4.000000
6.509789 4.256080 3.152890 9.000000
6.581330 4.326026 2.316639 71.000000
6.481541 4.210026 4.073639 5.000000
3.744848 3.851412 4.253562 7.000000
6.581706 4.297416 2.312173 71.000000
3.763656 2.365882 4.074371 9.000000
6.517521 4.219643 3.607993 6.000000
6.395275 6.319173 2.438118 11.000000
5.998667 3.906028 2.499198 7.000000
4.755873 4.813348 4.306311 10.000000
6.596721 6.506769 2.025202 61.000000
6.606874 6.476927 2.022250 52.000000
6.479656 4.152499 4.056465 4.000000
6.370505 6.256230 2.421551 10.000000
3.767761 2.352371 4.071002 9.000000
3.747297 3.830372 4.243042 9.000000
6.198192 6.163878 4.381249 7.000000
6.208132 3.963035 4.370973 9.000000
5.997130 3.878881 2.493648 5.000000
6.582774 4.269367 2.307987 70.000000
6.567263 6.462743 2.996776 6.000000
6.428138 6.302576 3.432086 6.000000
6.605698 6.436173 2.015932 46.000000
6.387592 6.234637 2.420769 10.000000
3.743583 3.803198 4.225717 7.000000
5.980375 3.842068 2.481898 6.000000
6.586154 4.242913 2.304637 76.000000
3.631286 2.233967 4.337021 8.000000
6.216623 3.941670 4.368428 8.000000
6.530715 4.184485 3.144304 11.000000
3.759257 2.331061 4.054163 9.000000
4.814015 4.812749 4.331971 6.000000
6.499088 4.136889 4.060638 6.000000
6.353975 6.163923 2.401098 13.000000
6.535378 4.146358 3.596674 9.000000
3.761984 2.316808 4.049447 22.000000
6.202675 6.093144 4.358047 10.000000
6.222127 3.918454 4.363852 4.000000
5.955484 3.800308 2.466885 7.000000
4.834154 4.803322 4.336779 11.000000
6.608549 6.399566 2.010877 51.000000
6.586198 4.214408 2.300171 77.000000
6.495842 4.079040 4.043001 4.000000
6.612648 6.364357 2.006242 47.000000
6.393028 6.163839 2.408597 11.000000
3.756300 3.769604 4.213955 9.000000
6.580457 4.182334 2.293753 56.000000
4.853678 4.793222 4.341053 4.000000
6.231927 3.897983 4.362324 7.000000
5.937578 3.763293 2.454808 9.000000
6.212367 6.065343 4.351797 11.000000
3.764030 2.302173 4.044058 14.000000
6.549603 4.127263 3.597509 4.000000
4.349352 4.327386 4.361009 4.000000
6.585948 4.157516 2.291240 58.000000
6.238735 3.875670 4.358764 6.000000
6.514102 6.292200 3.982539 6.000000
3.513620 3.538140 4.387078 4.000000
6.506821 4.058160 4.042070 5.000000
3.749473 3.739774 4.193537 4.000000
3.665534 2.208825 4.353372 5.000000
3.767283 2.288317 4.040016 11.000000
6.613767 6.326482 2.000766 53.000000
6.382603 6.116145 2.397723 20.000000
5.912302 3.721890 2.439795 6.000000
6.214236 6.030065 4.340196 12.000000
3.771753 2.275226 4.037320 11.000000
4.898124 4.778107 4.354413 4.000000
3.522326 3.525223 4.384441 4.000000
6.240334 3.850185 4.351646 14.000000
6.555523 4.075022 3.587030 6.000000
3.107740 3.147144 4.323485 6.000000
3.760369 3.727707 4.192915 6.000000
6.397137 6.092544 2.396165 14.000000
5.914876 3.698224 2.436203 7.000000
6.584028 4.128109 2.286216 39.000000
3.541134 3.522360 4.394316 3.000000
3.680827 2.187385 4.355502 8.000000
3.777446 2.262890 4.035972 10.000000
3.110801 3.130995 4.314421 7.000000
6.512098 4.033018 3.105506 10.000000
6.387725 6.046345 2.385810 8.000000
6.571796 6.233422 2.946455 7.000000
6.244773 3.826527 4.346561 8.000000
3.763944 3.708447 4.184251 13.000000
5.942251 3.690042 2.442727 12.000000
6.039970 3.761060 2.095717 24.000000
6.435101 6.053848 2.396414 8.000000
3.771931 3.693593 4.180536 6.000000
3.795166 2.257727 4.047419 5.000000
3.551921 3.511487 4.394312 3.000000
6.570795 6.194310 2.937557 5.000000
3.110241 3.111311 4.300479 6.000000
5.973083 3.694006 2.068939 31.000000
6.247423 5.951656 4.325017 6.000000
6.241769 3.798400 4.336395 17.000000
5.936649 3.661375 2.435871 13.000000
6.584902 6.169574 2.935405 4.000000
3.793802 2.241188 4.038662 13.000000
3.126387 3.108327 4.309537 5.000000
5.960660 3.661087 2.060848 39.000000
5.930928 3.632776 2.429016 6.000000
6.251996 5.919552 4.315646 7.000000
6.438113 6.019575 2.390716 4.000000
6.219491 3.758740 4.313014 4.000000
5.182403 4.933535 4.055950 8.000000
3.765212 3.664489 4.160736 16.000000
6.518509 3.981867 3.096924 6.000000
3.770218 3.646923 4.153928 7.000000
6.272081 5.902189 4.316979 5.000000
5.214608 4.933776 4.069198 5.000000
3.803845 2.231416 4.042028 9.000000
3.561002 3.477558 4.379160 4.000000
6.526727 3.959448 3.095057 5.000000
6.467875 6.010315 2.394850 9.000000
5.964486 3.638284 2.058335 31.000000
6.022790 3.663714 2.461645 6.000000
6.232469 3.740535 4.314028 7.000000
6.525455 6.091297 3.403389 4.000000
3.792153 2.208943 4.022496 12.000000
6.276424 5.870093 4.307608 6.000000
3.769483 3.623921 4.140933 6.000000
5.962479 3.612009 2.053870 46.000000
4.517563 4.305663 4.435446 4.000000
5.242419 4.929692 4.079010 5.000000
3.578679 3.473431 4.387718 5.000000
5.026108 4.754678 4.402519 4.000000
6.467825 5.973417 2.388118 5.000000
6.229119 3.712581 4.303861 8.000000
3.122864 3.067014 4.278863 6.000000
6.609353 6.116786 2.929568 4.000000
5.965303 3.588751 2.051078 37.000000
4.521851 4.283372 4.426783 5.000000
3.122497 3.047919 4.265617 4.000000
5.995716 3.597023 2.441735 4.000000
6.542934 3.914572 3.091322 8.000000
6.525557 6.016932 3.384277 6.000000
5.265796 4.921321 4.085388 4.000000
3.699915 2.122646 4.339139 5.000000
6.230844 3.687755 4.297251 5.000000
3.575764 3.449392 4.371252 2.000000
3.798271 2.196934 4.021821 12.000000
6.533816 5.997294 2.405450 8.000000
6.548531 3.890693 3.088336 7.000000
6.315608 5.834521 4.309827 7.000000
5.974245 3.559256 2.428680 5.000000
6.492217 5.922566 2.383709 8.000000
3.766558 3.576952 4.113707 5.000000
3.799864 2.182330 4.016432 11.000000
5.969690 3.566495 2.048845 33.000000
6.234703 3.664263 4.292167 8.000000
5.289809 4.913445 4.092255 7.000000
3.752924 3.542217 4.087102 13.000000
3.804614 2.169569 4.014410 12.000000
6.465970 5.862419 2.367661 6.000000
5.132841 4.766856 4.457050 5.000000
3.699407 2.092296 4.323491 6.000000
6.550048 3.864458 3.083486 5.000000
6.023366 3.563547 2.444014 6.000000
5.313183 4.904878 4.098632 7.000000
6.324243 5.806654 4.303578 6.000000
5.983080 3.549639 2.049679 31.000000
5.996423 3.532733 2.050513 31.000000
3.795174 2.148779 3.997571 10.000000
3.702130 2.078876 4.319223 7.000000
6.049752 3.554157 2.450212 5.000000
5.336554 4.896214 4.105008 4.000000
6.526744 3.811456 3.512861 6.000000
3.756317 3.523712 4.079057 17.000000
6.250360 3.622065 4.287588 6.000000
6.259948 3.602019 4.286569 6.000000
3.698052 2.061689 4.307133 6.000000
6.514057 3.777294 3.499872 6.000000
6.461333 3.733078 3.933930 5.000000
3.792083 2.131694 3.987468 12.000000
6.557595 3.814870 3.076023 11.000000
6.013033 3.517720 2.052463 35.000000
5.354768 4.882758 4.107459 8.000000
6.323932 5.735301 4.279486 9.000000
3.763082 3.508430 4.074723 11.000000
3.762868 3.486738 4.062966 10.000000
6.340830 5.715281 4.279035 7.000000
5.382639 4.878008 4.117271 4.000000
6.476338 5.764160 2.352120 6.000000
6.258257 3.575538 4.277927 7.000000
6.538739 3.777096 3.061849 6.000000
6.033759 3.505051 2.055808 32.000000
4.537670 4.168278 4.379431 5.000000
4.599212 2.585455 4.352407 4.000000
3.173354 2.985551 4.259328 4.000000
6.263204 3.552927 4.273859 16.000000
3.816724 2.114853 3.999587 7.000000
5.400168 4.863809 4.119230 15.000000
3.758508 3.461358 4.046879 13.000000
6.334990 5.674916 4.263421 5.000000
6.052800 3.491328 2.058594 32.000000
5.459877 4.887296 4.153094 4.000000
6.342337 5.646538 4.256726 4.000000
6.517748 3.699710 3.483528 6.000000
4.572839 4.149144 4.388659 6.000000
3.801177 2.091016 3.976688 9.000000
6.462956 5.681614 2.334774 12.000000
6.269571 3.531165 4.270807 6.000000
6.521480 3.713947 3.043199 8.000000
6.062649 3.472269 2.058313 33.000000
3.197177 2.989506 4.278841 5.000000
3.685396 2.010398 4.270863 6.000000
6.280373 3.511921 4.270805 9.000000
5.476146 4.871686 4.154072 5.000000
6.482539 5.663670 2.335546 12.000000
6.497428 3.661862 3.466769 3.000000
6.528804 3.691643 3.041332 10.000000
6.522096 3.662211 3.943200 4.000000
3.834165 2.093890 4.004299 8.000000
3.237879 3.008945 4.320658 5.000000
6.080784 3.457931 2.060821 32.000000
6.284340 3.488879 4.266229 8.000000
6.507046 3.641029 3.465930 5.000000
5.506737 4.868711 4.165848 8.000000
3.778536 3.416111 4.034497 9.000000
6.495505 5.639962 2.333988 25.000000
5.968367 3.360110 2.392441 5.000000
6.087182 3.436902 2.059424 34.000000
6.522301 3.661604 3.033126 9.000000
3.807127 3.420772 4.053671 5.000000
3.955616 2.128895 4.116765 5.000000
6.094346 3.416336 2.058306 48.000000
6.565450 5.665425 2.352613 36.000000
3.248345 2.981770 4.310197 7.000000
6.291242 3.467510 4.263685 4.000000
5.965446 3.334406 2.387217 5.000000
6.530260 3.639775 3.031632 8.000000
5.551112 4.877664 4.187932 7.000000
6.108154 3.399496 2.059419 38.000000
5.589027 4.880662 4.205107 6.000000
6.543018 3.620628 3.032375 7.000000
6.554192 5.620750 2.342517 43.000000
6.448367 5.555422 3.246264 7.000000
6.298071 3.446132 4.261142 6.000000
3.876736 2.071084 4.028539 6.000000
3.820534 3.411697 4.056761 8.000000
3.818632 3.389024 4.043767 9.000000
6.298776 3.421454 4.254533 8.000000
6.131160 3.387714 2.063601 50.000000
6.541897 3.593838 3.026779 11.000000
6.512404 3.565734 3.451261 7.000000
3.270298 2.965163 4.315071 10.000000
5.613189 4.871489 4.211975 6.000000
6.567727 5.597489 2.341219 45.000000
3.704770 3.319538 4.376483 4.000000
6.002512 3.283005 2.389822 6.000000
6.291050 3.392305 4.242334 6.000000
6.159202 3.378595 2.069456 34.000000
6.576019 5.569830 2.338109 42.000000
3.280978 2.956562 4.317160 6.000000
3.831368 3.379376 4.046239 6.000000
5.649888 4.873019 4.228168 15.000000
6.434916 5.441527 3.214413 4.000000
6.550768 3.546570 3.020808 8.000000
3.290031 2.946489 4.317157 5.000000
3.890199 3.410040 4.096963 5.000000
6.301426 3.372996 4.242332 9.000000
6.590857 5.547769 2.337328 57.000000
6.218447 3.386337 2.085630 21.000000
5.354733 4.617803 4.498711 4.000000
5.980110 3.223238 2.373175 6.000000
6.307940 3.351633 4.239788 8.000000
6.440117 5.412142 3.208749 5.000000
6.233028 3.369532 2.087023 35.000000
3.693310 3.248577 4.327745 4.000000
5.337418 4.574434 4.472505 4.000000
6.497636 3.467119 3.882865 3.000000
5.719490 4.872151 4.257610 6.000000
3.302806 2.939721 4.322033 5.000000
6.575974 5.500891 2.326197 37.000000
6.440470 3.456248 2.152005 37.000000
3.296755 2.916294 4.302515 12.000000
3.688514 3.224373 4.310621 6.000000
6.444423 5.368821 2.730483 6.000000
6.504327 3.445100 3.880543 13.000000
5.754366 4.871466 4.272332 4.000000
5.997621 4.986341 2.118934 19.000000
6.314384 3.330262 4.237245 9.000000
5.785290 4.867249 4.284108 6.000000
6.446804 3.434219 2.150609 35.000000
6.492913 3.413588 3.867549 4.000000
3.305146 2.905700 4.301815 10.000000
3.677350 3.194806 4.286253 11.000000
6.008420 4.964232 2.117378 22.000000
6.306259 3.301290 4.225046 12.000000
6.320177 3.283920 4.227585 7.000000
6.030421 3.179102 2.381327 6.000000
6.533843 3.434408 2.993577 11.000000
6.571902 3.475056 2.188259 69.000000
5.405166 4.546881 4.493882 5.000000
3.689982 3.185972 4.289543 7.000000
6.529231 5.360510 2.292546 25.000000
5.818248 4.864563 4.297356 8.000000
5.841188 4.853374 4.303242 6.000000
6.530364 3.407053 2.987236 8.000000
6.577430 3.452203 2.186583 71.000000
5.977369 4.877236 2.096152 28.000000
6.477909 3.368112 3.394275 9.000000
3.696308 3.171706 4.285589 10.000000
3.329412 2.891014 4.310174 4.000000
5.872852 4.849298 4.315509 8.000000
6.499630 3.341143 3.853159 8.000000
6.516068 3.374201 2.976046 8.000000
3.695131 3.151089 4.273075 5.000000
6.576067 3.425798 2.182676 61.000000
6.000559 4.865567 2.098994 28.000000
6.114127 4.967086 3.467234 11.000000
6.475824 3.316717 3.382543 7.000000
6.481445 3.306693 3.836453 5.000000
6.096795 4.976015 3.946707 5.000000
5.907240 4.847281 4.329740 10.000000
6.000408 4.835025 2.093815 31.000000
6.021505 4.862382 2.521652 9.000000
6.160446 4.986878 3.024782 7.000000
6.347574 3.272107 2.493245 4.000000
6.592515 3.408700 2.184627 93.000000
3.699608 3.135370 4.267146 5.000000
6.008172 4.821267 2.509996 8.000000
6.590981 3.382322 2.180720 93.000000
6.115201 4.919328 2.995418 16.000000
5.942347 4.845650 4.344461 10.000000
6.370203 3.259083 2.498137 5.000000
6.002389 4.806340 2.089412 36.000000
6.522597 3.326996 2.969703 13.000000
6.102230 4.926450 3.452019 14.000000
3.713240 3.127402 4.271753 11.000000
3.365706 2.868631 4.322712 7.000000
6.467351 3.287372 3.372906 7.000000
6.008031 4.780694 2.086303 38.000000
5.968018 4.836174 4.352310 4.000000
6.331291 3.167346 4.202164 6.000000
6.401239 3.250233 2.506293 5.000000
6.108336 4.883039 2.984802 10.000000
6.110878 4.902554 3.448412 13.000000
5.976031 4.765453 2.490675 11.000000
3.714153 3.108764 4.261872 12.000000
6.082592 4.902600 3.918157 8.000000
4.761420 3.912112 4.379945 5.000000
6.537738 3.309491 2.971938 12.000000
3.390371 2.871723 4.342922 5.000000
6.588491 3.355550 2.176534 72.000000
6.422996 3.236542 2.510859 3.000000
6.494954 3.238614 3.826704 5.000000
3.718460 3.093035 4.255943 16.000000
6.083624 4.872739 3.909233 16.000000
6.125171 4.883218 3.448008 12.000000
4.800611 3.919682 4.404762 4.000000
6.471160 3.239506 3.364524 5.000000
6.520502 3.275671 2.959630 6.000000
6.009783 4.752065 2.081901 41.000000
6.587613 3.329691 2.172906 90.000000
6.121822 4.863118 2.984090 20.000000
5.998438 4.830409 4.363595 7.000000
6.010772 4.763053 2.498950 4.000000
6.330949 3.142933 4.195556 5.000000
3.424439 2.864666 4.363827 7.000000
3.723866 3.078267 4.251331 19.000000
6.134508 4.842582 2.983025 5.000000
6.092939 4.849602 3.905662 8.000000
6.030241 4.825591 4.375862 5.000000
6.528859 3.254828 2.958883 9.000000
6.592647 3.306885 2.171231 97.000000
6.002163 4.726351 2.489441 15.000000
6.020534 4.730627 2.080604 42.000000
6.132936 4.858722 3.444001 13.000000
6.436275 3.218518 2.512163 5.000000
6.090931 4.817575 3.894954 11.000000
6.596743 3.283651 2.169277 84.000000
6.416485 3.184049 2.500740 5.000000
6.104327 4.766201 2.104145 29.000000
6.138447 4.832526 3.438794 15.000000
3.434313 2.855069 4.365218 6.000000
6.050473 4.811410 4.379785 7.000000
6.537981 3.234377 2.958508 4.000000
3.723397 3.058722 4.240134 11.000000
6.139763 4.816244 2.978423 16.000000
6.147129 4.791644 2.974881 8.000000
3.711759 3.030178 4.216425 10.000000
6.047585 4.702289 2.496179 8.000000
6.600759 3.260423 2.167322 84.000000
6.111313 4.803295 3.898518 5.000000
6.558698 3.219627 2.963354 7.000000
3.452460 2.852281 4.377064 5.000000
6.392305 3.147642 2.487686 4.000000
6.337133 3.073647 4.180812 9.000000
6.116630 4.745679 2.103365 32.000000
6.155409 4.815370 3.439990 15.000000
6.110493 4.772417 3.888703 10.000000
6.403629 3.128851 2.488336 8.000000
6.603831 3.236779 2.165089 94.000000
6.107298 4.795718 4.399411 5.000000
3.696471 2.998891 4.188765 4.000000
6.170152 4.796468 3.439986 14.000000
6.162539 4.773340 2.975231 14.000000
6.504703 3.157098 3.361584 5.000000
3.465076 2.844864 4.381941 5.000000
6.357395 3.059429 4.187925 3.000000
6.134985 4.729843 2.104655 34.000000
6.536849 3.184048 2.949182 7.000000
3.473229 2.833774 4.381241 5.000000
6.373225 3.089804 2.472998 9.000000
6.505525 3.120240 3.804423 5.000000
6.100372 4.673432 2.088092 42.000000
6.516810 3.138315 3.362839 10.000000
6.117170 4.773216 4.395971 11.000000
6.159356 4.740733 2.966738 28.000000
6.176130 4.770804 3.435179 11.000000
3.713275 2.993677 4.197323 12.000000
6.538232 3.159944 2.945451 7.000000
6.605094 3.212306 2.162298 94.000000
6.121568 4.750912 3.886469 13.000000
6.358978 3.036205 4.182842 4.000000
3.712448 2.974287 4.186126 16.000000
6.363083 3.060813 2.465492 11.000000
6.125584 4.749632 4.391550 23.000000
6.190009 4.751282 3.434775 25.000000
3.503089 2.840251 4.407724 10.000000
6.601945 3.185768 2.158113 94.000000
6.184276 4.729770 2.971686 33.000000
6.351140 3.008572 4.171659 6.000000
6.519064 3.102178 3.806741 4.000000
6.207715 4.725447 2.119396 20.000000
6.124768 4.723376 3.879330 27.000000
6.533780 3.121838 3.366607 7.000000
6.598696 3.159279 2.153928 98.000000
6.127146 4.695321 3.871744 8.000000
3.715661 2.958208 4.179538 6.000000
6.190561 4.704559 2.967791 27.000000
6.202144 4.691244 2.112664 30.000000
6.137363 4.728698 4.389582 17.000000
6.203097 4.731164 3.433970 14.000000
3.527991 2.842528 4.427934 6.000000
6.350265 3.030690 2.457006 12.000000
6.524545 3.080278 3.804419 4.000000
6.299932 4.734835 2.140604 15.000000
6.215389 4.710457 3.432766 9.000000
3.720583 2.943537 4.174927 8.000000
6.147932 4.681385 3.875754 5.000000
6.592744 3.131604 2.148906 124.000000
6.334759 2.999461 2.447541 6.000000
6.537973 3.062132 3.806737 6.000000
6.525923 3.080234 2.927173 8.000000
6.202723 4.683860 2.966726 7.000000
6.160144 4.716206 4.395468 4.000000
6.526028 3.044688 3.348171 5.000000
6.232358 4.654263 2.113174 29.000000
6.145841 4.650095 3.865493 4.000000
6.217811 4.665374 2.967076 7.000000
5.552198 4.250408 4.448909 3.000000
6.149610 4.678314 4.377794 6.000000
6.385591 2.953267 4.176228 4.000000
6.143017 4.597615 2.500142 5.000000
6.218092 4.682559 3.426358 9.000000
3.727818 2.930722 4.172949 10.000000
6.321687 2.969563 2.439056 7.000000
6.591897 3.106453 2.145557 99.000000
6.533660 3.059416 2.926426 4.000000
3.525287 2.787305 4.392381 7.000000
6.321879 4.690922 2.138268 24.000000
6.249347 4.659132 2.975208 8.000000
6.593566 3.082557 2.143045 95.000000
6.517210 3.016263 3.338954 9.000000
6.535441 3.035842 2.923068 9.000000
3.730262 2.914187 4.165702 7.000000
6.341904 2.955352 2.443296 18.000000
6.350082 2.935490 2.442968 19.000000
6.161342 4.602675 3.857458 6.000000
6.597764 3.059893 2.141370 94.000000
6.541353 3.014229 2.921575 7.000000
6.169577 4.558715 2.499521 6.000000
6.417696 2.920469 4.185373 9.000000
6.508278 2.987921 3.329736 10.000000
6.516736 2.979368 3.778429 8.000000
3.736209 2.900431 4.162407 9.000000
6.263624 4.656896 3.435556 10.000000
6.256091 4.634379 2.971667 10.000000
6.443570 4.750561 2.173971 15.000000
6.349606 2.911663 2.439377 17.000000
6.474483 4.742754 2.179400 12.000000
6.596652 3.034823 2.138021 94.000000
6.117524 4.491360 2.473149 4.000000
6.409357 2.892973 4.174191 3.000000
6.508324 2.963804 3.325127 5.000000
5.591076 4.199148 4.448899 7.000000
3.740317 2.885289 4.157137 14.000000
6.547193 2.992608 2.920081 5.000000
6.514075 2.942333 3.323450 11.000000
6.596321 3.010187 2.134952 127.000000
6.544512 2.967146 2.914859 6.000000
6.355401 4.647782 3.004910 4.000000
6.506970 4.735939 2.185348 16.000000
3.520734 2.731497 4.355433 4.000000
6.192547 4.592154 4.367962 7.000000
3.740781 2.867405 4.147915 7.000000
6.344742 2.885908 2.434155 24.000000
6.072040 4.429412 2.449536 5.000000
6.517927 2.931704 3.768682 6.000000
3.740572 2.849090 4.138036 7.000000
6.591527 2.983601 2.130488 108.000000
6.367350 2.872657 2.439374 30.000000
6.418831 4.663982 3.027898 10.000000
6.508983 2.916025 3.316327 4.000000
6.540891 2.941348 2.909264 12.000000
3.523412 2.716317 4.348462 5.000000
6.208709 4.574690 4.369431 7.000000
6.516373 2.907006 3.762649 4.000000
6.514421 4.710867 2.183015 16.000000
3.509508 2.688517 4.321277 5.000000
6.200912 4.539684 4.354212 8.000000
6.518640 4.683541 2.179648 14.000000
6.353701 2.843070 2.430888 27.000000
6.591889 2.959434 2.127697 113.000000
6.544798 2.919003 2.907025 10.000000
3.736082 2.827628 4.123546 5.000000
6.515409 2.894941 3.315069 14.000000
6.546085 2.895536 2.903667 5.000000
6.512185 2.857364 3.750118 4.000000
6.511191 4.670284 3.057603 11.000000
6.524258 2.874945 3.315067 5.000000
3.737515 2.810739 4.115642 9.000000
6.588655 2.933729 2.123791 111.000000
6.340795 2.813977 2.422729 27.000000
6.521180 4.655112 2.175763 20.000000
6.215513 4.521159 4.354699 6.000000
6.562824 4.676872 3.074932 7.000000
6.540159 4.638439 2.177312 19.000000
3.735260 2.791167 4.103787 12.000000
6.364103 2.800992 2.428275 32.000000
6.589719 2.910012 2.121279 125.000000
6.544741 2.870969 2.899191 12.000000
6.464587 4.623962 3.497977 11.000000
6.528054 2.852738 3.312552 6.000000
6.204628 4.484227 4.337517 12.000000
6.509778 2.795291 4.205183 6.000000
5.951821 4.203539 2.375625 4.000000
3.731105 2.770292 4.089956 11.000000
6.545860 2.847549 2.895833 9.000000
6.588059 2.885161 2.117931 128.000000
6.333684 2.764434 2.413590 19.000000
6.554358 4.618356 2.177308 68.000000
6.492181 2.801213 3.728772 7.000000
6.171296 2.635765 4.461541 5.000000
3.730494 2.752145 4.080076 12.000000
6.364686 2.754762 2.422072 21.000000
6.494228 2.778499 3.725059 3.000000
6.588071 2.861113 2.115141 91.000000
6.439664 4.546721 3.469550 6.000000
6.548601 2.824885 2.893222 8.000000
6.563745 4.594909 2.175752 99.000000
6.207188 4.428389 4.320330 6.000000
6.547852 2.800770 2.889118 10.000000
6.529806 2.782224 3.300400 9.000000
6.216477 4.406311 4.317381 3.000000
6.363553 2.731124 2.418481 14.000000
6.532357 2.757656 4.208737 6.000000
6.478258 2.748184 3.711138 6.000000
6.570670 4.569794 2.173420 77.000000
6.591526 2.838612 2.113466 122.000000
3.731630 2.735362 4.072172 11.000000
5.996246 4.180004 2.382977 4.000000
3.732697 2.718597 4.064268 11.000000
6.593137 2.815362 2.111233 114.000000
6.217137 4.378203 4.308544 8.000000
6.366683 2.709371 2.416523 24.000000
3.586115 2.643902 4.354718 4.000000
6.527436 2.757588 3.294953 9.000000
6.539330 2.773424 2.881659 9.000000
6.552081 4.549096 3.043790 5.000000
6.539196 2.736943 4.207719 4.000000
6.574323 4.542486 2.170053 81.000000
6.538811 2.713243 4.202127 5.000000
6.385413 2.694242 2.420437 27.000000
6.475958 4.483629 3.466738 5.000000
6.440221 2.685538 3.680048 6.000000
6.577871 4.515198 2.166686 85.000000
3.736137 2.703614 4.058998 19.000000
6.509903 2.726673 3.281966 7.000000
6.186978 2.553178 4.449952 5.000000
6.540965 2.750475 2.878675 6.000000
6.595553 2.792503 2.109280 97.000000
6.520752 2.707740 3.283222 5.000000
6.230282 4.330546 4.299211 9.000000
6.528926 4.473948 3.020437 5.000000
6.442698 2.663403 3.676799 4.000000
6.516043 2.680390 4.182306 3.000000
6.582111 4.488474 2.163577 76.000000
6.597005 2.769284 2.107047 100.000000
6.419806 2.685595 2.430224 17.000000
3.744413 2.692146 4.058995 12.000000
6.597490 2.745714 2.104535 106.000000
6.541424 2.703562 2.871587 8.000000
3.750814 2.679342 4.057017 5.000000
6.584650 4.460685 2.159952 83.000000
6.530244 4.445487 3.014774 5.000000
6.418411 2.661906 2.426633 21.000000
3.589358 2.595699 4.329620 6.000000
6.177060 4.194283 2.433554 11.000000
4.585458 3.241756 4.445151 4.000000
6.511396 2.680464 3.274423 4.000000
6.243537 4.311419 4.299207 6.000000
6.506761 2.665886 2.852941 10.000000
6.588683 4.434000 2.156843 73.000000
6.508412 2.630683 4.167058 5.000000
6.597893 2.722166 2.102024 105.000000
3.600799 2.587188 4.333800 7.000000
6.247389 4.285848 4.292823 12.000000
6.202528 4.183827 2.438457 7.000000
6.467632 2.659111 2.441969 12.000000
3.749803 2.661304 4.047138 17.000000
6.208538 2.473384 4.443329 5.000000
6.529436 4.386581 3.002034 7.000000
6.591811 4.406796 2.153476 75.000000
6.508031 2.643121 2.849956 6.000000
3.766565 2.655857 4.056355 9.000000
6.222452 4.169548 2.441213 5.000000
6.468074 4.383198 3.918502 5.000000
6.458253 2.632121 2.435441 21.000000
6.261947 4.267649 4.293801 4.000000
6.447215 2.596066 3.665660 4.000000
6.600880 2.699733 2.100349 108.000000
6.458410 2.609112 2.432503 22.000000
3.775310 2.644727 4.057011 9.000000
6.497173 2.615520 2.841751 5.000000
6.429498 4.328378 3.887281 6.000000
3.635919 2.578730 4.356796 7.000000
6.604681 2.677669 2.098953 101.000000
6.259852 4.238175 4.283490 7.000000
6.474005 2.570676 4.135038 3.000000
6.594835 4.379614 2.150110 66.000000
6.503762 2.607590 3.258502 12.000000
6.246310 4.157822 2.445503 8.000000
6.488365 4.346592 3.437501 5.000000
6.491480 2.579578 3.248447 5.000000
6.418123 2.569952 2.414555 33.000000
6.262699 4.212155 4.276616 12.000000
6.487932 4.317540 3.430292 5.000000
6.606627 2.654890 2.097000 108.000000
6.596947 4.351924 2.146484 73.000000
6.521538 2.602118 2.848835 5.000000
3.785259 2.634426 4.058984 9.000000
6.213497 2.431303 4.436156 5.000000
6.259035 4.138643 2.445499 6.000000
6.215482 2.410123 4.432294 5.000000
6.395228 2.538043 2.403134 39.000000
6.517172 4.291875 2.978324 5.000000
6.451457 4.285890 3.884598 4.000000
6.591678 4.319501 2.140530 90.000000
6.512878 2.564983 3.255149 9.000000
6.604927 2.630702 2.093931 115.000000
3.790844 2.621098 4.056348 7.000000
6.266894 4.187125 4.270722 10.000000
6.292393 4.133002 2.453468 15.000000
6.478586 2.561959 2.826833 8.000000
6.601354 2.605844 2.090304 100.000000
6.438418 4.248843 3.868986 10.000000
6.590321 4.289784 2.135869 107.000000
6.296270 4.107966 2.450092 13.000000
6.503690 2.548852 2.834290 7.000000
6.281161 4.168849 4.271701 6.000000
3.670687 2.552945 4.370032 4.000000
6.211946 2.386859 4.424572 5.000000
6.520910 4.265726 2.974077 7.000000
6.439046 2.532610 2.416511 28.000000
3.797624 2.608611 4.055029 12.000000
6.520628 4.237049 2.968060 9.000000
6.595903 2.580333 2.086119 108.000000
6.485928 4.230648 3.408668 5.000000
3.795655 2.590176 4.044491 17.000000
6.583976 4.256972 2.129656 89.000000
6.527045 2.534943 2.841000 20.000000
6.332813 4.104152 2.459287 16.000000
3.681452 2.543714 4.373515 4.000000
6.441633 2.479701 3.640599 4.000000
6.261902 4.128482 4.250101 8.000000
6.438859 2.509757 2.413573 25.000000
6.520870 2.522034 3.251376 11.000000
6.429100 4.186334 3.848020 6.000000
6.440356 2.487610 2.411288 20.000000
6.306143 4.059484 2.444260 10.000000
6.277453 4.111167 4.252061 7.000000
3.797972 2.574731 4.038562 9.000000
6.584091 2.552448 2.079982 120.000000
6.465760 2.466252 3.649877 7.000000
6.505684 2.493243 3.240065 8.000000
6.500155 2.501572 2.826083 9.000000
6.583182 4.227890 2.125254 111.000000
6.298071 4.097117 4.257457 8.000000
6.417943 2.456349 2.400192 32.000000
6.320973 4.041660 2.445177 21.000000
6.579829 4.197296 2.120077 85.000000
6.588304 2.530862 2.078866 122.000000
3.675051 2.506165 4.347723 4.000000
3.797107 2.557196 4.029341 8.000000
6.456652 2.462106 2.804081 7.000000
6.509057 2.471666 3.237969 7.000000
6.590652 2.508591 2.077191 126.000000
6.494463 4.151557 3.393048 6.000000
6.430557 4.131351 3.833743 12.000000
6.194216 4.002661 4.179413 3.000000
6.455882 2.417220 3.635956 6.000000
3.802429 2.543870 4.026705 8.000000
6.484931 2.415167 4.108095 9.000000
6.531002 2.467559 2.832793 7.000000
6.583695 4.171412 2.117228 103.000000
6.416610 2.433299 2.396928 20.000000
6.225118 2.304682 4.413536 7.000000
6.330127 4.020214 2.443948 20.000000
6.410772 2.408616 2.392033 13.000000
3.794533 2.521801 4.010241 4.000000
6.508716 4.132601 3.393846 7.000000
6.343235 4.001287 2.444251 18.000000
6.504529 2.424393 3.228333 8.000000
6.493925 2.395864 4.109110 3.000000
6.594722 2.487008 2.076074 116.000000
3.690356 2.483582 4.347719 5.000000
6.479455 2.425382 2.807435 5.000000
6.460775 2.396483 3.634563 5.000000
6.581741 4.141945 2.112567 107.000000
6.505973 2.402229 3.225400 8.000000
6.483892 2.382466 3.643377 7.000000
6.592425 2.463069 2.073005 119.000000
3.677077 2.458328 4.323322 5.000000
6.342122 4.043211 4.261865 3.000000
6.317557 3.958080 2.429838 23.000000
6.508181 4.104316 3.387038 6.000000
6.211701 2.256481 4.394229 8.000000
6.505132 2.412277 2.815265 12.000000
6.505287 2.377415 4.111650 5.000000
6.588680 4.118156 2.110753 94.000000
6.407500 2.384982 2.388116 20.000000
6.532531 2.399677 2.823841 10.000000
6.506489 2.379766 3.222048 7.000000
3.688784 2.449815 4.328199 4.000000
6.339767 4.014428 4.252046 6.000000
6.332902 3.940694 2.431061 20.000000
6.404144 2.361391 2.384200 13.000000
6.588147 4.089783 2.106610 114.000000
6.530031 4.074289 2.937975 5.000000
6.590945 2.439501 2.070215 133.000000
