# .PCD v0.7 - Point Cloud Data file format
VERSION 0.7
FIELDS x y z intensity
SIZE 4 4 4 4
TYPE F F F F
COUNT 1 1 1 1
WIDTH 677
HEIGHT 1
VIEWPOINT 0 0 0 1 0 0 0
POINTS 677
DATA ascii
5.010705 14.248167 0.601738 4.000000
5.038350 14.187527 0.599921 5.000000
5.078482 14.162597 0.599528 9.000000
5.125991 14.158228 0.599959 7.000000
5.176950 14.163085 0.600763 5.000000
4.955502 13.303205 0.567625 9.000000
5.287401 14.062460 0.598610 7.000000
4.964365 13.231658 -0.121850 5.000000
5.619342 14.921205 1.416883 3.000000
5.298975 13.963018 0.595259 3.000000
5.125761 13.411119 -0.124416 6.000000
5.447584 14.093369 0.601774 6.000000
5.184510 13.441047 -0.124985 5.000000
5.471194 14.026315 0.599734 8.000000
5.837186 14.941150 1.425184 7.000000
5.237327 13.454899 -0.125362 9.000000
4.899910 12.607841 -0.778116 7.000000
5.289912 13.467622 -0.125729 22.000000
5.330101 13.448540 -0.125713 10.000000
5.553102 13.982267 0.599284 4.000000
5.955997 14.973563 1.431536 6.000000
5.979651 14.899746 1.426333 5.000000
5.633504 14.058859 0.603047 7.000000
4.967646 12.441689 -0.770333 8.000000
5.380988 13.456265 -0.126024 12.000000
5.427858 13.453606 -0.126210 11.000000
6.021224 14.871175 1.425364 7.000000
5.014743 12.448612 -0.771795 8.000000
5.687974 13.946301 0.599866 10.000000
5.066813 12.467385 -0.774041 10.000000
5.751641 13.979617 0.601906 5.000000
5.104284 12.449934 -0.773938 7.000000
6.099082 14.801714 1.422301 5.000000
4.979997 12.041247 -0.748282 15.000000
5.565610 13.437263 -0.126680 10.000000
5.798717 13.972060 0.602298 4.000000
5.614517 13.438580 -0.126923 11.000000
5.850430 13.975408 0.603141 4.000000
5.911544 14.000665 0.604882 15.000000
5.658051 13.426822 -0.127008 6.000000
5.942337 13.953961 0.603703 10.000000
5.253177 12.378088 -0.773461 8.000000
5.695309 13.400197 -0.126914 11.000000
5.978813 13.920974 0.603085 6.000000
5.736788 13.383580 -0.126943 8.000000
5.317045 12.422482 -0.777456 8.000000
5.363042 12.424439 -0.778677 10.000000
5.784963 13.382440 -0.127163 8.000000
5.413482 12.436301 -0.780562 6.000000
5.819203 13.349046 -0.126989 9.000000
6.540964 14.925184 2.252064 4.000000
6.077716 13.915168 0.604322 6.000000
5.855707 13.321060 -0.126883 8.000000
6.145346 13.953161 0.606623 10.000000
6.511957 14.764279 1.433200 10.000000
5.469662 12.460767 -0.783291 5.000000
5.898169 13.306690 -0.126946 13.000000
6.174746 13.904103 0.605369 9.000000
5.505444 12.438451 -0.782946 6.000000
6.560656 14.723666 2.228006 9.000000
6.271676 14.006404 0.610328 6.000000
5.558627 12.455229 -0.785192 7.000000
6.576569 14.638393 2.218273 5.000000
5.947941 13.308618 -0.127211 9.000000
6.606325 14.584755 2.213262 14.000000
6.465073 14.320463 0.624005 4.000000
5.972317 13.253839 -0.126777 6.000000
6.616388 14.634731 1.426579 5.000000
6.619356 14.495016 2.202853 10.000000
6.659605 14.610740 1.426213 8.000000
5.649379 12.452704 -0.787335 13.000000
6.025357 13.262769 -0.127134 6.000000
6.582647 14.462465 0.630645 3.000000
6.667110 14.481845 2.203913 5.000000
6.071016 13.255131 -0.127286 13.000000
5.678012 12.414433 -0.785965 12.000000
6.676952 14.530493 1.420494 6.000000
6.638238 14.466727 0.631636 9.000000
6.685915 14.433099 1.413135 10.000000
5.744069 12.457692 -0.790020 9.000000
6.663297 14.404572 0.629896 5.000000
6.104112 13.220100 -0.127101 8.000000
6.652293 14.333693 2.184735 13.000000
6.679171 14.323380 0.627371 9.000000
6.666853 14.250391 2.175272 12.000000
6.125660 13.160516 -0.126610 5.000000
6.687602 14.321345 1.404394 7.000000
5.777636 12.430053 -0.789373 7.000000
6.689938 14.212421 1.395912 14.000000
6.708210 14.271168 0.626042 5.000000
6.630685 14.060483 2.149753 18.000000
6.211428 13.133531 -0.126781 10.000000
6.652103 13.994435 2.142853 16.000000
5.874257 12.437693 -0.792300 9.000000
6.255319 13.202009 0.582590 9.000000
6.714725 14.152225 1.392093 4.000000
6.258146 13.127953 -0.126967 5.000000
6.685061 13.978762 1.377395 13.000000
5.889226 12.370940 -0.789060 8.000000
6.631233 13.840812 2.122733 16.000000
6.713419 14.057499 0.618860 9.000000
6.676453 13.851385 1.367101 7.000000
6.407495 13.335833 -0.129826 7.000000
6.682422 13.882857 0.612445 13.000000
5.930176 12.359115 -0.789498 12.000000
6.619820 13.708866 2.105850 13.000000
6.661034 13.711650 1.355598 10.000000
6.482801 13.387213 -0.130735 11.000000
6.627169 13.617215 2.095039 10.000000
5.978928 12.363329 -0.791022 5.000000
6.696204 13.802949 0.609957 6.000000
6.692883 13.688971 0.606048 12.000000
6.672413 13.628512 1.349535 7.000000
6.014646 12.340441 -0.790738 7.000000
6.645796 13.549670 2.087870 12.000000
6.558921 13.439156 -0.131656 4.000000
6.659245 13.539213 -0.133185 9.000000
6.721161 13.640585 0.604872 8.000000
6.653975 13.461709 2.077599 7.000000
6.085036 12.388232 -0.795215 11.000000
6.689955 13.558840 1.344768 6.000000
6.097781 12.318511 -0.791794 5.000000
6.726100 13.545609 0.601750 11.000000
6.661014 13.396405 1.331022 12.000000
6.658586 13.367617 2.066385 11.000000
6.705193 13.527678 -0.133315 14.000000
6.718969 13.451579 -0.132633 16.000000
6.700299 13.372346 1.330658 6.000000
6.736780 13.463245 0.599151 13.000000
6.660460 13.269195 2.054495 9.000000
6.162049 12.258565 -0.790320 3.000000
6.658216 13.163814 2.041525 14.000000
6.748971 13.408571 -0.132370 6.000000
6.744319 13.375589 0.596328 10.000000
6.683833 13.237886 1.319588 9.000000
6.666185 13.079762 2.031795 16.000000
6.676993 13.124081 1.310505 11.000000
6.721968 13.230103 0.591075 16.000000
6.238862 12.317078 -0.795581 5.000000
6.263466 12.272094 -0.793848 4.000000
6.731568 13.148929 0.588515 12.000000
6.772435 13.252041 -0.130948 8.000000
6.669628 12.987851 2.020851 14.000000
6.684058 13.038813 1.304185 13.000000
6.696148 12.964250 1.298901 15.000000
6.635696 12.824757 1.998979 17.000000
6.720124 13.027854 0.584272 17.000000
6.412446 12.469428 -0.808577 8.000000
6.771414 13.150297 -0.129938 16.000000
6.731498 12.952197 0.581935 22.000000
6.650284 12.756892 1.991677 20.000000
6.670600 12.818145 1.286623 18.000000
5.897921 11.288768 2.404509 10.000000
6.466742 12.480718 -0.810704 15.000000
6.011265 11.420264 2.435995 7.000000
6.682145 12.744678 1.281426 11.000000
6.653463 12.668004 1.981138 8.000000
6.717946 12.756502 -0.125766 10.000000
6.728337 12.754200 0.575283 24.000000
6.658411 12.605187 1.269754 14.000000
6.641597 12.459054 1.955204 7.000000
6.692373 12.575908 1.268875 24.000000
6.706953 12.619660 0.570443 11.000000
6.723785 12.673112 -0.124981 12.000000
6.724419 12.559379 0.568743 20.000000
6.725408 12.582751 -0.124106 10.000000
6.693276 12.485070 1.261951 10.000000
6.687290 12.452592 1.957345 13.000000
6.745971 12.528602 -0.123693 14.000000
6.155570 11.334864 3.099187 6.000000
6.189101 11.372537 3.791543 5.000000
6.176336 11.416646 1.800172 28.000000
6.721137 12.445193 1.260035 11.000000
6.733989 12.485036 0.566446 17.000000
6.712733 12.482916 -0.817841 11.000000
6.766538 12.453782 0.565982 11.000000
6.654570 12.231972 1.241026 4.000000
6.213704 11.401997 1.800832 28.000000
6.232269 11.368660 3.796552 7.000000
6.782471 12.504331 -0.123664 14.000000
6.191249 11.317637 3.099636 7.000000
6.740067 12.442074 -0.816470 15.000000
6.732766 12.301467 0.560357 6.000000
6.269877 11.440864 1.164865 5.000000
6.284289 11.380598 3.806861 11.000000
6.249881 11.342052 3.111425 10.000000
6.785811 12.419403 -0.122856 14.000000
6.745702 12.361751 -0.812385 11.000000
6.250563 11.386357 1.801357 22.000000
6.284970 11.419068 -0.110240 3.000000
6.316586 11.457209 0.525160 4.000000
6.810998 12.390860 -0.815839 19.000000
6.293396 11.400641 1.162777 6.000000
6.285468 11.367130 1.801342 17.000000
6.287482 11.327934 3.112799 9.000000
6.333809 11.372036 1.805104 6.000000
6.344513 11.348510 3.123662 4.000000
6.797259 12.276460 -0.809403 7.000000
6.336573 11.396086 1.164230 5.000000
6.377464 11.383728 3.820783 7.000000
6.324061 11.387977 0.523014 8.000000
6.385026 11.339170 3.126425 6.000000
6.373119 11.427306 -0.752125 5.000000
6.360914 11.338726 1.802931 6.000000
6.376374 11.385287 1.165079 5.000000
6.431301 11.339844 3.131965 11.000000
6.424278 11.436421 -0.754130 8.000000
6.409806 11.363070 1.164805 6.000000
6.406469 11.390375 -0.110669 15.000000
4.879369 14.853041 1.041965 4.000000
6.404443 11.334691 1.805344 9.000000
6.473283 11.390316 3.836100 8.000000
6.448498 11.331356 1.807892 7.000000
6.459891 11.370209 1.167466 5.000000
6.448777 11.383719 -0.110853 11.000000
6.467508 11.322599 3.132644 3.000000
6.459336 11.416657 -0.754146 4.000000
6.438963 11.347547 0.523755 9.000000
6.490874 11.390715 -0.753738 8.000000
6.481184 11.340755 0.524301 10.000000
6.505380 11.326874 2.464936 5.000000
6.556956 11.374523 3.844162 6.000000
4.907873 14.636448 1.029261 5.000000
6.509585 11.376283 1.170041 9.000000
6.497026 11.335595 1.811654 7.000000
6.509491 11.315359 3.136101 7.000000
6.499526 11.391675 -0.111230 7.000000
4.849655 14.462242 1.770265 5.000000
6.525915 11.338141 0.525034 5.000000
6.550434 11.324738 2.468767 5.000000
6.546944 11.360577 1.170458 6.000000
4.948910 14.609983 1.028471 4.000000
6.539787 11.287764 3.134004 4.000000
6.531753 11.381137 -0.754477 8.000000
6.537932 11.377751 -0.111324 11.000000
6.528801 11.310463 1.810830 12.000000
6.586268 11.348195 1.171220 6.000000
6.567139 11.361908 -0.754552 5.000000
6.569944 11.301519 1.812569 8.000000
6.564178 11.324121 0.525281 9.000000
4.986922 14.574907 1.027101 6.000000
6.618196 11.355566 -0.111591 7.000000
6.601967 11.341706 -0.754567 4.000000
6.546694 11.159681 2.441817 7.000000
6.606088 11.283878 1.812959 8.000000
6.619546 11.325357 1.170946 8.000000
6.625080 11.237100 1.808763 15.000000
5.156225 14.772972 1.042679 6.000000
6.636578 11.288802 0.525475 16.000000
6.642641 11.285249 1.168946 10.000000
6.642790 11.331732 -0.755306 13.000000
6.657053 11.342109 -0.111696 6.000000
6.644858 11.192014 1.804837 21.000000
6.685715 11.311301 -0.111575 7.000000
6.664536 11.243391 1.166774 16.000000
5.210820 14.783436 1.044459 5.000000
6.663038 11.254630 0.524863 5.000000
4.882718 13.869377 0.258310 9.000000
6.684121 11.322474 -0.756104 10.000000
6.717320 11.285581 -0.111522 13.000000
6.657814 11.135856 1.799157 24.000000
6.680111 11.191239 1.163565 17.000000
5.252134 14.756102 1.043668 5.000000
6.693443 11.227270 0.524549 16.000000
6.715516 11.186119 0.523637 10.000000
4.085075 11.454334 3.948196 8.000000
6.739119 11.257264 -0.754445 10.000000
4.916685 13.697066 0.255993 8.000000
6.683114 11.118603 1.158285 21.000000
5.269351 14.661980 1.038313 7.000000
6.644940 11.037276 1.786733 19.000000
6.741120 11.246906 -0.111299 17.000000
6.742052 11.152637 0.523062 19.000000
6.767846 11.213330 -0.111144 6.000000
6.685218 11.045201 1.152919 25.000000
6.772080 11.233971 -0.754278 13.000000
6.645905 10.962608 1.778086 22.000000
5.022099 13.856752 0.258782 13.000000
6.797194 11.197781 -0.753207 14.000000
5.090718 13.912639 0.259910 5.000000
6.746107 11.082388 0.520881 14.000000
4.164395 11.454109 3.956755 8.000000
6.788199 11.169441 -0.110853 16.000000
5.336548 14.567537 1.034032 10.000000
6.693675 10.982954 1.148675 18.000000
6.653699 10.899879 1.771329 24.000000
6.752405 11.016481 0.518886 8.000000
5.376715 14.538932 1.033178 4.000000
6.659097 10.833830 1.764031 20.000000
6.688266 10.898679 1.142188 28.000000
4.198860 11.439499 3.956125 7.000000
6.803650 11.117856 -0.110460 14.000000
6.809658 11.141100 -0.750688 10.000000
4.234599 11.428354 3.956723 7.000000
6.695494 10.835730 1.137857 20.000000
6.817275 11.063727 -0.110033 12.000000
5.438408 14.568176 1.036306 3.000000
6.773579 10.975304 0.517974 13.000000
6.669887 10.777120 1.758217 29.000000
5.170748 13.867090 0.259646 7.000000
6.826024 11.091250 -0.748652 6.000000
5.225605 13.883913 0.260155 5.000000
6.826943 11.003672 -0.109527 8.000000
4.278985 11.440273 3.965297 10.000000
6.848456 11.051587 -0.747339 10.000000
6.689298 10.734742 1.754696 15.000000
6.706608 10.779609 1.134218 23.000000
5.460896 14.492599 1.032238 6.000000
6.788237 10.923914 0.516615 10.000000
4.908555 12.942846 -0.434948 7.000000
6.857502 10.990718 -0.744517 12.000000
6.697982 10.675559 1.748479 19.000000
6.719027 10.726053 1.130839 21.000000
5.500366 14.462722 1.031319 5.000000
6.807412 10.880162 0.515592 16.000000
6.834188 10.940269 -0.108975 7.000000
4.317091 11.435112 3.968043 7.000000
5.562245 14.491429 1.034449 9.000000
5.308908 13.846923 0.260043 5.000000
6.804018 10.800881 0.513000 10.000000
6.720553 10.655670 1.125733 19.000000
6.878981 10.950186 -0.743144 8.000000
4.355884 11.431602 3.971402 7.000000
6.830996 10.860841 -0.108208 7.000000
6.675152 10.566995 1.734303 13.000000
6.880003 10.877565 -0.739478 8.000000
4.988242 12.913417 -0.435017 8.000000
5.339453 13.799801 0.259526 11.000000
5.602712 14.464062 1.033722 12.000000
6.828451 10.783227 -0.107463 6.000000
4.397773 11.435956 3.977522 8.000000
6.612789 10.413792 1.103019 4.000000
6.787336 10.645863 -0.105915 10.000000
6.657047 10.412765 1.104991 6.000000
5.668874 14.502570 1.037557 9.000000
5.051447 12.958572 -0.437253 10.000000
6.904232 10.842092 -0.738467 18.000000
4.435250 11.428628 3.979653 9.000000
5.383222 13.787081 0.259568 5.000000
6.865288 10.708246 -0.730396 5.000000
4.474113 11.424721 3.983013 11.000000
5.423663 13.765851 0.259474 5.000000
5.704915 14.463762 1.036061 12.000000
6.520700 10.095312 2.270224 5.000000
6.721222 10.400758 -0.103201 5.000000
6.678566 10.306505 1.098233 9.000000
6.613412 10.190038 1.686505 19.000000
6.755282 10.437193 0.500504 4.000000
5.165178 13.013716 -0.440461 5.000000
6.554856 10.080209 2.271310 23.000000
5.760340 14.474008 1.037969 4.000000
6.750877 10.388852 -0.710454 6.000000
4.547305 11.405023 3.985742 5.000000
6.640496 10.179155 1.087172 25.000000
6.572832 10.040314 2.266901 10.000000
6.720185 10.313429 0.495894 8.000000
5.199133 12.982965 -0.439933 6.000000
6.615926 10.125736 1.679343 27.000000
6.720390 10.329794 -0.102536 10.000000
5.798023 14.439601 1.036793 7.000000
5.506166 13.727675 0.259362 8.000000
5.846797 14.432846 1.037544 7.000000
6.632807 10.083867 1.675823 24.000000
6.683035 10.203720 -0.101122 22.000000
5.548258 13.710718 0.259343 7.000000
5.223207 12.928038 -0.438518 10.000000
6.644356 10.117095 1.082843 36.000000
6.659733 10.152375 0.489604 24.000000
6.600359 10.015179 2.265790 19.000000
4.594005 11.420160 3.995850 8.000000
5.576306 13.659386 0.258767 6.000000
5.275303 12.942491 -0.439661 10.000000
6.668828 10.098538 0.488098 35.000000
5.903893 14.446247 1.039710 8.000000
6.647851 10.039514 1.671900 33.000000
4.633676 11.417482 3.999823 7.000000
6.724479 10.210505 -0.700585 22.000000
6.691746 10.148939 -0.100670 33.000000
6.666575 10.083367 1.081450 32.000000
6.733716 10.156545 -0.698184 23.000000
5.936388 14.399470 1.037699 5.000000
6.699225 10.077200 0.488048 24.000000
6.670990 10.023056 1.077295 20.000000
5.617426 13.640366 0.258719 9.000000
6.705714 10.102533 -0.100332 37.000000
5.385655 12.984646 -0.442461 6.000000
6.725569 10.065283 -0.100119 35.000000
5.653108 13.608296 0.258459 7.000000
6.750441 10.114249 -0.696629 37.000000
5.975939 14.370135 1.036908 6.000000
6.713997 10.032515 0.486951 23.000000
5.438591 12.999406 -0.443639 14.000000
5.686714 13.571526 0.258124 5.000000
6.765857 10.070290 -0.694953 33.000000
6.782744 10.028811 -0.693457 31.000000
6.076062 14.361691 1.038861 3.000000
5.485446 12.999232 -0.444271 9.000000
5.724820 13.545728 0.257970 8.000000
6.075032 14.237439 1.031454 6.000000
5.770667 13.538218 0.258119 11.000000
5.524911 12.981422 -0.444254 12.000000
5.813756 13.524125 0.258161 6.000000
5.565502 12.966248 -0.444339 7.000000
5.600093 12.937190 -0.443914 7.000000
5.854426 13.504392 0.258112 4.000000
6.440388 14.716611 1.069042 6.000000
5.909456 13.517514 0.258606 8.000000
5.677765 13.006955 -0.447174 7.000000
5.703545 12.957463 -0.445996 6.000000
6.539326 14.838017 3.522913 5.000000
5.960586 13.521278 0.258951 13.000000
6.006512 13.512978 0.259098 15.000000
5.746923 12.948124 -0.446321 6.000000
6.555735 14.733344 1.072986 9.000000
6.036896 13.469854 0.258673 11.000000
5.814807 12.993368 -0.448695 12.000000
6.598728 14.707767 1.868261 8.000000
5.847652 12.959983 -0.448131 10.000000
6.603261 14.597844 1.857046 11.000000
6.109090 13.519602 0.259784 5.000000
6.622151 14.640115 1.069221 9.000000
5.894426 12.957445 -0.448728 8.000000
6.143904 13.486240 0.259526 6.000000
6.632651 14.544377 1.063871 10.000000
6.631929 14.542267 1.852618 7.000000
6.204041 13.508213 0.260186 8.000000
5.937904 12.947475 -0.449053 10.000000
6.659489 14.484846 1.847962 10.000000
6.669736 14.507644 1.062695 8.000000
5.990609 12.957315 -0.450130 6.000000
6.313549 13.636090 0.262607 7.000000
6.676309 14.404860 1.840479 8.000000
6.662405 14.260100 1.824855 19.000000
6.015129 12.906268 -0.448918 9.000000
6.056823 12.892276 -0.449105 10.000000
6.688556 14.202812 1.045359 7.000000
6.205455 13.190002 0.255796 8.000000
6.587533 13.890867 0.267777 8.000000
6.106621 12.895308 -0.449942 4.000000
6.650880 14.010740 1.798584 11.000000
6.670018 14.051521 1.036027 15.000000
6.643925 13.899457 0.268240 10.000000
6.151325 12.887335 -0.450369 6.000000
6.682503 13.967086 1.031448 12.000000
6.655221 13.909617 1.788389 14.000000
6.671342 13.847486 0.267695 10.000000
6.639573 13.768331 1.773105 9.000000
6.681523 13.855744 1.024942 19.000000
6.683414 13.751719 1.018951 16.000000
6.215455 12.818776 -0.449242 4.000000
6.677438 13.738964 1.771957 4.000000
6.684083 13.765798 0.266653 6.000000
6.205584 12.699091 -0.445432 5.000000
6.681875 13.654528 0.265115 10.000000
6.694831 13.668426 1.014438 13.000000
6.662275 13.601540 1.757127 8.000000
6.301063 12.794741 -0.449822 4.000000
6.694311 13.561928 1.008254 5.000000
6.709578 13.605271 0.264615 12.000000
6.659093 13.490172 1.745575 7.000000
6.702760 13.487036 0.262956 11.000000
6.676099 13.420760 1.739338 9.000000
6.362071 12.819210 -0.451514 6.000000
6.703872 13.477004 1.003611 10.000000
6.526120 13.118999 2.440127 6.000000
6.650868 13.267886 1.722474 8.000000
6.680762 13.327924 0.994346 11.000000
6.404055 12.804994 -0.451735 4.000000
6.746795 13.471773 0.263029 4.000000
6.709471 13.282893 1.726979 4.000000
6.669405 13.204052 0.986879 15.000000
6.709223 13.294815 0.260379 10.000000
6.645947 13.087104 -0.464103 14.000000
6.661363 13.087830 1.704688 4.000000
6.705092 13.185946 0.258871 26.000000
5.762972 11.337749 2.769582 10.000000
6.687241 13.139068 0.983650 15.000000
5.792379 11.309581 2.767040 4.000000
6.692440 13.050126 0.978688 16.000000
6.672000 13.009874 1.697321 5.000000
6.719970 13.115486 0.258011 19.000000
6.694722 13.083556 -0.464770 24.000000
6.687073 12.941774 0.972314 22.000000
6.696801 12.989235 -0.461951 20.000000
6.663055 12.894909 1.685206 9.000000
5.819425 11.276995 2.763447 5.000000
6.700522 12.979321 0.256039 29.000000
6.699689 12.880652 0.254698 16.000000
6.693092 12.856591 0.967609 15.000000
6.659436 12.791577 1.674562 12.000000
5.860763 11.272100 2.766590 11.000000
6.711781 12.807792 0.253794 9.000000
5.904850 11.272255 2.770996 11.000000
6.709782 12.792700 0.964445 8.000000
6.641395 12.661997 1.660525 17.000000
6.184772 11.818175 -0.418383 10.000000
5.953101 11.280025 2.777295 9.000000
6.658846 12.600758 2.374156 4.000000
6.653274 12.590619 1.653950 22.000000
6.723734 12.752028 -0.455237 19.000000
6.706208 12.702267 0.252333 19.000000
6.684161 12.649428 0.955502 20.000000
6.678324 12.544721 1.650656 16.000000
6.689628 12.566329 0.950927 20.000000
5.988139 11.262574 2.777491 9.000000
6.716492 12.627790 0.251399 12.000000
6.709353 12.630735 -0.451358 19.000000
6.738166 12.591590 -0.450656 13.000000
6.039290 11.275174 2.785054 13.000000
6.680604 12.456762 1.641934 21.000000
6.699367 12.492109 0.946994 13.000000
6.729690 12.559541 0.250571 27.000000
6.752037 12.508924 0.250043 16.000000
6.208133 11.491224 2.178397 6.000000
6.745926 12.513683 -0.448452 14.000000
6.707290 12.415316 0.942868 17.000000
6.617675 12.249165 1.617724 4.000000
6.085001 11.277242 2.790091 8.000000
6.182787 11.398111 3.504527 7.000000
6.138256 11.292877 2.798496 5.000000
6.763623 12.438966 0.249184 12.000000
6.237696 11.461728 2.176435 5.000000
6.203195 11.399069 0.869910 4.000000
6.229463 11.446962 1.516410 4.000000
6.785718 12.495563 -0.448571 14.000000
6.233256 11.380862 0.231384 14.000000
6.787075 12.407182 -0.445956 13.000000
6.251576 11.404485 0.871693 7.000000
6.192602 11.310004 2.807322 8.000000
6.231629 11.404521 3.512277 10.000000
6.265509 11.429542 1.516622 6.000000
6.263814 11.426104 2.173340 6.000000
6.284606 11.381760 0.871422 11.000000
6.277808 11.379193 0.231670 19.000000
6.280228 11.373153 2.167002 10.000000
6.266123 11.384508 3.512004 12.000000
6.295259 11.400702 1.515363 10.000000
6.317971 11.359009 2.167959 8.000000
6.347602 11.412592 1.519418 6.000000
6.319980 11.372990 0.231880 10.000000
6.314141 11.388886 3.519236 5.000000
6.327261 11.376378 0.872433 8.000000
6.359003 11.364285 2.834851 9.000000
6.370926 11.372267 1.516689 10.000000
6.368188 11.391719 -0.408679 11.000000
6.355686 11.344740 2.168917 5.000000
6.360183 11.353433 0.872161 8.000000
6.357063 11.383801 3.523621 7.000000
6.369013 11.378846 0.232301 5.000000
6.391917 11.327769 2.169388 5.000000
6.413411 11.390413 -0.409411 10.000000
6.401433 11.381085 3.528783 9.000000
6.408232 11.357332 0.873880 6.000000
6.414702 11.378412 0.232616 7.000000
6.407285 11.368570 2.840730 6.000000
6.405787 11.352670 1.516675 5.000000
6.461645 11.394153 -0.410349 14.000000
6.457979 11.373459 0.232857 6.000000
6.454204 11.370115 2.845978 8.000000
6.451883 11.352832 1.519260 9.000000
6.442738 11.336415 2.174725 10.000000
6.444034 11.339355 0.873994 4.000000
6.495160 11.348110 0.876097 8.000000
6.492219 11.378512 3.540142 7.000000
6.501285 11.368347 0.233097 11.000000
6.492941 11.357054 2.847646 5.000000
6.490730 11.339719 2.179087 6.000000
6.503020 11.385554 -0.410808 8.000000
6.495079 11.347644 1.521167 5.000000
6.537924 11.341963 0.877109 8.000000
6.550884 11.388070 -0.411712 4.000000
6.532345 11.331971 1.521717 9.000000
6.528060 11.360222 3.540644 5.000000
6.530420 11.328303 2.180693 9.000000
6.527753 11.337085 2.847631 5.000000
6.546618 11.366541 0.233398 12.000000
6.565585 11.309301 1.521363 7.000000
6.588299 11.372243 -0.411898 8.000000
6.574194 11.324443 0.877287 13.000000
6.627694 11.359744 -0.412220 7.000000
6.624315 11.339972 0.233609 14.000000
6.606892 11.300776 0.877016 15.000000
6.603763 11.295112 1.522140 12.000000
6.596818 11.282918 2.179691 7.000000
6.665555 11.344526 -0.412441 7.000000
6.667191 11.333383 0.233834 9.000000
6.641243 11.292546 2.851586 5.000000
6.632921 11.265839 0.875910 18.000000
6.628803 11.258536 1.519977 19.000000
6.599346 11.208219 2.169300 18.000000
6.649625 11.215076 1.516910 19.000000
6.647087 11.211106 0.873327 23.000000
6.698362 11.306855 0.233714 19.000000
6.653927 11.235120 2.842310 7.000000
6.697783 11.319723 -0.412285 10.000000
6.727896 11.277666 0.233549 20.000000
6.679404 11.187236 0.873055 29.000000
6.665657 11.163919 1.512826 12.000000
6.727364 11.290537 -0.411958 12.000000
6.621433 11.089589 2.154354 10.000000
6.752198 11.253565 -0.411322 11.000000
6.678199 11.107690 0.868612 23.000000
6.632533 11.031178 2.147044 20.000000
6.750101 11.236406 0.233174 47.000000
6.667606 11.089782 1.505690 28.000000
6.651518 10.986306 2.142328 10.000000
6.677603 11.029964 0.864296 31.000000
6.667106 11.012340 1.498102 32.000000
6.774706 11.199392 0.232874 35.000000
6.782040 11.225099 -0.411029 16.000000
6.130198 10.056059 1.967216 17.000000
6.798258 11.174359 -0.409848 11.000000
6.784576 11.138428 0.232153 14.000000
6.666193 10.935005 1.490514 16.000000
6.680231 10.958310 0.860430 23.000000
6.696585 10.909705 0.858298 30.000000
6.673710 10.872172 1.484848 21.000000
6.785246 11.063021 0.231178 9.000000
6.815796 11.126184 -0.408768 13.000000
6.651664 10.835986 2.121223 24.000000
6.674109 10.798411 1.477713 18.000000
6.646469 10.753429 2.109212 31.000000
6.703255 10.845825 0.855011 30.000000
6.829429 11.072053 -0.407448 13.000000
6.794451 11.002175 0.230459 15.000000
6.719091 10.797255 0.852878 28.000000
6.835408 11.006059 -0.405650 10.000000
6.690926 10.751741 1.474195 30.000000
6.652826 10.690271 2.100929 30.000000
6.804405 10.943075 0.229768 11.000000
6.696964 10.688233 1.468416 30.000000
6.746356 10.767291 0.852157 30.000000
6.818837 10.891644 0.229213 21.000000
6.643659 10.602932 2.087945 14.000000
6.846878 10.949452 -0.404229 16.000000
6.743669 10.690005 0.847843 6.000000
6.816483 10.814011 0.228194 15.000000
6.854870 10.887806 -0.402601 7.000000
6.606799 10.402085 1.435384 3.000000
6.648956 10.406371 0.221652 12.000000
6.528755 10.209710 2.023219 5.000000
6.606364 10.331527 0.823619 3.000000
6.728872 10.472857 -0.388346 5.000000
6.684100 10.390968 0.221728 4.000000
6.701262 10.409368 0.831114 5.000000
6.657050 10.340474 1.432531 12.000000
6.571270 10.207055 2.026609 21.000000
6.570338 10.137177 2.016869 23.000000
6.644716 10.260491 0.219749 23.000000
6.607646 10.194962 1.415563 30.000000
6.625109 10.222143 0.818329 23.000000
6.591158 10.101276 2.013776 25.000000
6.620432 10.146622 0.814080 32.000000
6.649394 10.199024 0.219001 25.000000
6.613363 10.135543 1.410238 30.000000
6.692613 10.277305 -0.382079 23.000000
6.623143 10.082827 1.405817 38.000000
6.639472 10.107918 0.812655 34.000000
6.655953 10.140967 0.218313 27.000000
6.688480 10.202405 -0.379869 34.000000
6.612361 10.066169 2.010845 26.000000
6.674644 10.204899 -0.980665 21.000000
6.676558 10.104653 0.218014 40.000000
6.660541 10.072522 0.811486 26.000000
6.633760 10.031803 1.401622 18.000000
6.691662 10.139305 -0.378138 54.000000
6.684540 10.151919 -0.977429 28.000000
6.623610 10.016213 2.004996 25.000000
6.672049 10.022973 0.809227 24.000000
6.706140 10.093760 -0.377125 47.000000
6.708082 10.084955 0.218016 23.000000
6.690317 10.093162 -0.973609 17.000000
6.701884 10.043581 -0.970704 19.000000
6.722851 10.040239 0.217568 29.000000
6.730406 10.063171 -0.376727 23.000000
6.736679 10.006004 -0.375234 27.000000
6.724885 10.011394 -0.969550 28.000000
