# .PCD v0.7 - Point Cloud Data file format
VERSION 0.7
FIELDS x y z intensity
SIZE 4 4 4 4
TYPE F F F F
COUNT 1 1 1 1
WIDTH 1261
HEIGHT 1
VIEWPOINT 0 0 0 1 0 0 0
POINTS 1261
DATA ascii
4.052259 7.952542 -1.386420 6.000000
4.171767 8.125439 -1.419754 5.000000
4.153138 8.028396 -1.404604 10.000000
4.241621 8.138219 -1.426725 5.000000
4.199111 7.996639 -1.403519 6.000000
4.259168 8.050933 -1.415691 6.000000
4.298706 8.065715 -1.420756 7.000000
4.303353 8.015075 -1.413975 7.000000
4.216629 7.795966 -1.376554 9.000000
4.297199 7.887055 -1.395517 8.000000
4.292882 7.821889 -1.386051 8.000000
4.385632 7.933136 -1.408805 5.000000
4.337917 7.790222 -1.385123 7.000000
4.366144 7.784628 -1.386555 7.000000
4.484682 7.938864 -1.417365 7.000000
4.422128 7.772281 -1.389261 4.000000
4.477138 7.757828 -1.391650 10.000000
4.541611 7.759187 -1.397041 7.000000
4.555370 7.728200 -1.393892 11.000000
4.527162 7.626718 -1.377633 5.000000
4.595109 7.687387 -1.391543 12.000000
4.650236 7.725710 -1.401346 9.000000
4.624798 7.630330 -1.386192 13.000000
4.630702 7.587443 -1.380832 5.000000
4.629669 7.533654 -1.373418 4.000000
4.656496 7.474090 -1.367593 6.000000
4.735533 7.549283 -1.384504 13.000000
4.740750 7.506328 -1.379143 6.000000
4.749457 7.469246 -1.374888 7.000000
4.738821 7.402240 -1.364946 9.000000
4.854005 7.480720 -1.385501 9.000000
4.887732 7.482327 -1.388670 8.000000
4.882329 7.374788 -1.373839 10.000000
4.945992 7.421407 -1.385697 9.000000
6.724056 9.996475 -0.099475 14.000000
4.901642 7.306144 -1.366434 9.000000
6.714045 9.966283 0.484883 22.000000
6.731906 9.961368 -1.281041 8.000000
6.717113 9.905108 0.483040 22.000000
6.741241 9.955926 -0.099215 21.000000
6.739098 9.887269 -0.098570 19.000000
6.741755 9.910254 -1.277013 11.000000
6.723814 9.849788 0.481459 27.000000
4.185071 9.893887 -1.396083 4.000000
6.782592 9.962570 -0.690151 24.000000
4.970912 7.263978 -1.367094 7.000000
6.751914 9.859994 -1.273094 18.000000
6.724014 9.785460 0.479467 32.000000
6.749606 9.837687 -0.098186 19.000000
6.793946 9.913716 -0.688112 27.000000
6.713653 9.706428 0.476802 18.000000
6.787496 9.839413 -0.684203 30.000000
6.747164 9.788485 -1.266337 11.000000
6.738853 9.757687 -0.097383 28.000000
4.972456 7.218600 -1.361259 10.000000
6.738515 9.693447 -0.096794 25.000000
6.716000 9.646416 0.474997 24.000000
6.778947 9.762783 -0.680112 14.000000
6.753371 9.733433 -1.261762 13.000000
4.982768 7.186266 -1.357950 9.000000
5.025696 7.200909 -1.363804 10.000000
6.737846 9.629301 -0.096205 31.000000
6.754181 9.671100 -1.256205 14.000000
6.710015 9.575024 0.472670 24.000000
6.766104 9.625119 -1.252832 16.000000
6.765226 9.616495 -0.672412 21.000000
6.709990 9.512743 0.470753 21.000000
6.734545 9.561982 -0.095571 21.000000
6.751444 9.534590 -0.667899 27.000000
6.707334 9.447293 0.468686 25.000000
6.792159 9.599446 -1.252189 8.000000
6.726269 9.488247 -0.094847 22.000000
5.086316 7.193318 -1.368404 11.000000
6.737928 9.443145 -0.094519 23.000000
6.792177 9.537263 -1.246632 16.000000
6.745913 9.465055 -0.664290 28.000000
6.710147 9.390081 0.466994 24.000000
5.060280 7.110091 -1.355143 7.000000
6.741209 9.386689 -0.094031 23.000000
6.790141 9.472748 -1.240746 16.000000
5.109090 7.132266 -1.362577 7.000000
6.710340 9.329696 0.465153 23.000000
6.743508 9.400512 -0.661043 40.000000
6.738937 9.323008 -0.093442 26.000000
6.801728 9.427685 -1.237481 13.000000
6.710225 9.269399 0.463311 36.000000
6.750703 9.349832 -0.658822 32.000000
5.146536 7.138186 -1.366851 10.000000
6.739866 9.264281 -0.092921 27.000000
6.805512 9.372182 -1.232797 13.000000
5.106956 7.037635 -1.350114 7.000000
6.720983 9.224537 0.462179 32.000000
6.754131 9.294351 -0.656239 37.000000
6.804915 9.311126 -1.227349 12.000000
6.717349 9.160354 0.460150 34.000000
4.049344 5.545888 -1.404709 10.000000
6.746996 9.214514 -0.092524 30.000000
5.120955 7.011565 -1.348070 9.000000
6.757282 9.238937 -0.653655 35.000000
6.750690 9.170729 -0.650106 27.000000
6.723470 9.109951 0.458758 46.000000
5.174016 7.038789 -1.356609 7.000000
6.739057 9.144663 -0.091843 40.000000
6.783986 9.222936 -1.218186 15.000000
4.047805 5.508201 -1.398117 23.000000
4.049562 5.475297 -1.392762 13.000000
6.747309 9.107461 -0.646919 30.000000
6.714451 9.039538 0.456431 30.000000
6.764354 9.137358 -1.209351 13.000000
5.065246 6.846628 -1.321545 6.000000
6.735517 9.081373 -0.091253 35.000000
5.246587 7.046514 -1.364527 11.000000
4.096714 5.503670 -1.403492 8.000000
4.539713 9.565378 -1.375588 8.000000
6.720618 8.990081 0.455076 36.000000
6.738324 9.044016 -1.199424 12.000000
6.757920 9.063508 -0.645180 42.000000
6.733447 9.020597 -0.090698 30.000000
4.587017 9.588952 -1.381169 7.000000
6.764848 9.021709 -1.199217 20.000000
6.750355 8.995622 -0.641631 33.000000
6.716334 8.927094 0.453085 34.000000
6.687487 8.878845 0.996988 36.000000
4.083670 5.451127 -1.392983 15.000000
6.735271 8.965515 -0.090221 37.000000
6.696044 8.833673 0.994302 33.000000
4.092721 5.428412 -1.390309 24.000000
6.735614 8.908913 -0.089722 31.000000
5.139938 6.815485 -1.324731 9.000000
6.746648 8.933444 -0.638503 41.000000
6.717758 8.872186 0.451469 32.000000
6.755379 8.951713 -1.192457 24.000000
6.734773 8.861043 -0.634591 34.000000
6.682637 8.760013 0.988511 31.000000
6.742540 8.877900 -1.185150 15.000000
6.703163 8.796684 0.448882 27.000000
5.199617 6.850817 -1.335009 7.000000
4.625395 9.518730 -1.374963 5.000000
4.086888 5.386203 -1.382479 15.000000
6.738095 8.855577 -0.089267 47.000000
6.704585 8.742770 0.447302 36.000000
5.248177 6.870933 -1.342285 7.000000
6.688252 8.711809 0.985479 36.000000
4.135452 5.415641 -1.393622 18.000000
6.726334 8.784046 -0.088552 38.000000
6.738968 8.816890 -1.179591 13.000000
6.646122 8.688889 -0.623074 16.000000
4.679880 9.556114 -1.382665 5.000000
5.260810 6.843836 -1.340082 9.000000
6.616744 8.595678 -0.617532 19.000000
6.740437 8.746735 -0.088325 37.000000
4.177083 5.435520 -1.402290 24.000000
6.764776 8.794596 -1.179384 27.000000
6.693635 8.663653 0.982448 45.000000
6.706961 8.690514 0.445798 40.000000
4.701715 9.526604 -1.380424 9.000000
6.731706 8.680180 -0.087677 32.000000
4.157835 5.376227 -1.389924 20.000000
4.744614 9.539639 -1.384546 4.000000
6.699886 8.626483 0.443734 28.000000
6.749143 8.718771 -1.171749 19.000000
6.702453 8.620269 0.979936 33.000000
5.218964 6.746424 -1.323659 5.000000
6.624139 8.550874 -0.615671 24.000000
4.766749 9.510861 -1.382438 4.000000
4.178515 5.368851 -1.391374 14.000000
6.739238 8.635046 -0.087336 37.000000
5.356072 6.880002 -1.354002 6.000000
6.712785 8.588566 0.442902 42.000000
6.639911 8.517126 -0.614656 26.000000
6.700633 8.563570 0.975957 32.000000
6.756317 8.672926 -1.168265 21.000000
6.724410 8.539843 0.975600 41.000000
6.761434 8.624772 -1.164453 32.000000
6.711926 8.533367 0.441248 32.000000
4.216079 5.382972 -1.398598 23.000000
4.769974 9.444885 -1.374762 4.000000
6.744704 8.587590 -0.086961 33.000000
6.641987 8.466083 -0.612313 25.000000
5.260263 6.714272 -1.323676 6.000000
6.707692 8.474339 0.439408 33.000000
6.637011 8.406488 -0.609305 18.000000
6.787249 8.603206 -1.164355 39.000000
6.758622 8.551167 -0.086745 50.000000
4.203509 5.333116 -1.388707 18.000000
5.329123 6.759369 -1.336167 7.000000
6.581697 8.305976 0.952036 16.000000
6.670167 8.373982 0.435590 21.000000
6.763559 8.519276 -1.155518 32.000000
6.686362 8.415789 -0.611609 32.000000
6.521451 8.178239 0.940121 7.000000
6.761800 8.501432 -0.086335 39.000000
4.183379 5.274187 -1.376341 12.000000
5.453531 6.873737 -1.362876 7.000000
5.398833 6.762043 -1.343451 7.000000
4.247140 5.320990 -1.392432 15.000000
6.557954 8.193325 -0.082166 9.000000
6.548381 8.160526 0.940370 9.000000
6.794007 8.503921 -1.156293 38.000000
6.493368 8.100815 0.423486 7.000000
6.671642 8.344553 -0.607696 27.000000
6.569265 8.156033 -0.081926 12.000000
5.360197 6.671537 -1.328292 6.000000
4.226078 5.261388 -1.379860 18.000000
6.585232 8.184817 -0.596901 10.000000
6.469264 8.020179 0.420564 26.000000
4.847513 9.312675 -1.363808 3.000000
6.688052 8.318780 -1.133148 17.000000
6.574639 8.141950 0.940532 8.000000
6.624157 8.187699 -1.117539 12.000000
6.434653 7.927353 0.417045 32.000000
6.604661 8.157592 -0.596368 7.000000
6.605241 8.128702 0.941297 11.000000
6.498574 8.017749 -0.080210 31.000000
4.245275 5.252202 -1.380898 17.000000
4.868692 9.283715 -1.361700 7.000000
5.420984 6.704978 -1.338570 7.000000
6.631051 8.144979 -1.114381 8.000000
6.419759 7.859585 0.414721 29.000000
6.635331 8.144257 -0.596922 15.000000
5.417855 6.659204 -1.332574 9.000000
4.915686 9.303782 -1.367015 4.000000
6.616909 8.092202 0.939476 18.000000
6.486493 7.952825 -0.079561 29.000000
4.302108 5.289263 -1.394515 21.000000
4.928829 9.259789 -1.362652 5.000000
6.421004 7.812057 0.413368 25.000000
6.649531 8.110737 -0.595905 12.000000
5.475783 6.688399 -1.342063 11.000000
6.649299 8.081100 0.940502 11.000000
6.501983 7.922065 -0.079412 32.000000
6.654119 8.122289 -1.114063 7.000000
4.312740 5.269223 -1.392665 17.000000
6.680273 8.103370 -1.114292 15.000000
6.417561 7.759206 0.411753 28.000000
4.991432 9.308376 -1.372342 5.000000
4.305254 5.227258 -1.384835 20.000000
5.495651 6.670805 -1.341913 11.000000
6.496973 7.866610 -0.078899 30.000000
6.660720 8.044546 0.938680 28.000000
6.676290 8.092607 -0.596097 11.000000
6.693682 8.069062 -1.112336 23.000000
5.554525 6.700290 -1.351560 8.000000
6.482100 7.799724 -0.078216 38.000000
6.410019 7.701840 0.409914 33.000000
6.654766 7.987330 0.934528 48.000000
6.696625 8.066710 -0.595684 8.000000
4.335005 5.230601 -1.389379 11.000000
6.669001 7.954661 0.933138 44.000000
6.479704 7.748347 -0.077760 37.000000
4.334743 5.197733 -1.384024 19.000000
6.721592 8.052303 -1.112892 21.000000
6.730939 8.057618 -0.596600 24.000000
5.031864 9.247105 -1.367727 3.000000
5.540907 6.642264 -1.343036 9.000000
6.416298 7.661451 0.408898 40.000000
5.578398 6.645656 -1.347310 12.000000
6.674106 7.911317 0.930541 54.000000
6.738291 8.016297 -0.594979 31.000000
6.750740 8.036971 -1.113667 48.000000
4.374565 5.212898 -1.391866 12.000000
6.486066 7.707771 -0.077462 27.000000
6.412090 7.608868 0.407284 36.000000
6.474152 7.645859 -0.076847 38.000000
4.328058 5.125422 -1.371457 21.000000
6.682231 7.871815 0.928374 47.000000
5.108166 9.251622 -1.373187 9.000000
5.622331 6.656425 -1.353165 12.000000
6.406972 7.555621 0.405632 36.000000
6.731919 7.959000 -0.592092 57.000000
6.752271 7.988888 -1.109744 54.000000
6.465809 7.588660 -0.076299 40.000000
6.410020 7.512361 0.404465 34.000000
6.742723 7.922343 -0.590834 42.000000
6.688237 7.830065 0.925949 35.000000
4.385568 5.161343 -1.385074 16.000000
6.761941 7.950715 -1.107242 44.000000
5.545549 6.524760 -1.329156 8.000000
6.767564 7.908027 -1.104084 50.000000
5.096497 9.098198 -1.354518 6.000000
6.740382 7.870531 -0.588368 61.000000
6.403100 7.457779 0.402740 40.000000
6.459129 7.533863 -0.075786 38.000000
6.688855 7.782308 0.922834 45.000000
4.396933 5.142655 -1.383637 20.000000
5.523193 6.458178 -1.318736 10.000000
5.568739 6.471145 -1.325064 11.000000
6.689895 7.735373 0.919806 37.000000
6.743650 7.825614 -0.586445 56.000000
4.412691 5.129141 -1.383643 11.000000
6.457397 7.485236 -0.075363 27.000000
6.401783 7.410118 0.401350 31.000000
5.178970 9.179184 -1.369379 4.000000
6.766503 7.857846 -1.099833 60.000000
6.771056 7.814508 -1.096566 61.000000
5.578228 6.442082 -1.322544 12.000000
6.451497 7.432160 -0.074872 39.000000
6.738861 7.771700 -0.583799 56.000000
6.398925 7.361026 0.399885 40.000000
4.450175 5.140737 -1.390662 19.000000
6.685478 7.682493 0.916086 44.000000
6.765610 7.759976 -1.091660 59.000000
6.747583 7.733687 -0.582420 47.000000
6.399114 7.315783 0.398607 45.000000
5.599264 6.426426 -1.322868 7.000000
6.695237 7.646205 0.914265 31.000000
4.421593 5.076136 -1.376438 16.000000
6.469007 7.406307 -0.074790 35.000000
6.775623 7.723488 -1.089375 69.000000
6.679814 7.581520 0.909167 41.000000
6.448802 7.337598 -0.074060 41.000000
5.644986 6.438921 -1.329196 12.000000
6.391825 7.262356 0.396919 41.000000
4.464228 5.093459 -1.385106 11.000000
6.744942 7.682940 -0.580014 58.000000
6.748000 7.639016 -0.578151 48.000000
6.386918 7.212036 0.395381 39.000000
4.469481 5.067993 -1.381813 21.000000
6.674629 7.528932 0.905449 47.000000
6.442143 7.284816 -0.073568 28.000000
6.772322 7.672105 -1.084905 55.000000
5.648388 6.403056 -1.325254 6.000000
5.143350 8.860394 -1.330048 9.000000
5.647691 6.362798 -1.320363 7.000000
6.427912 7.223925 -0.072952 41.000000
4.484361 5.053524 -1.381613 13.000000
6.754831 7.599623 -0.576652 40.000000
6.387081 7.167784 0.394140 47.000000
6.680457 7.489088 0.903197 46.000000
6.775370 7.628248 -1.081529 46.000000
5.694149 6.375640 -1.326850 9.000000
5.237371 8.896129 -1.340547 5.000000
6.681447 7.444088 0.900341 42.000000
4.482253 5.020029 -1.376051 17.000000
6.425371 7.176602 -0.072540 42.000000
6.383030 7.119134 0.392676 42.000000
6.747512 7.544633 -0.573884 48.000000
6.792120 7.600012 -1.080446 71.000000
6.790818 7.551785 -1.076413 55.000000
6.681555 7.398414 0.897399 38.000000
6.380079 7.072061 0.391287 45.000000
6.429962 7.137537 -0.072253 33.000000
4.502211 5.011349 -1.377501 13.000000
6.752603 7.503860 -0.572262 49.000000
6.381601 7.030253 0.390160 29.000000
5.321856 8.914023 -1.348392 3.000000
6.684125 7.355759 0.894803 69.000000
5.819239 6.435812 -1.347407 6.000000
6.758178 7.463866 -0.570701 44.000000
6.417587 7.079987 -0.071681 41.000000
6.785284 7.499216 -1.071724 49.000000
4.043620 6.796524 -1.418199 12.000000
6.413679 7.032186 -0.071258 57.000000
6.692547 7.319776 0.892982 60.000000
6.756850 7.416529 -0.568537 45.000000
5.396704 8.976638 -1.360735 7.000000
4.040682 6.744449 -1.409676 14.000000
6.368777 6.973006 0.388248 42.000000
6.776145 7.443076 -1.066490 40.000000
5.748604 6.318576 -1.325925 6.000000
6.760690 7.375159 -0.566855 51.000000
5.386213 8.897305 -1.350936 5.000000
5.836623 6.375941 -1.342209 15.000000
6.424409 7.000686 -0.071085 49.000000
4.093383 6.785050 -1.421122 8.000000
6.371888 6.933565 0.387232 55.000000
6.787538 7.409788 -1.064642 58.000000
6.681253 7.262545 0.888660 50.000000
6.365998 6.884632 0.385731 37.000000
6.413303 6.945675 -0.070547 35.000000
6.682528 7.219346 0.885978 56.000000
6.777236 7.353108 -1.059298 57.000000
4.077392 6.711964 -1.408060 9.000000
5.781918 6.277370 -1.324677 6.000000
6.748778 7.316956 -0.563784 59.000000
6.777463 7.308225 -1.055701 63.000000
6.405322 6.894461 -0.070066 43.000000
4.089236 6.685165 -1.404982 6.000000
5.815243 6.274813 -1.328002 15.000000
5.468722 8.909693 -1.358119 6.000000
6.668665 7.160166 0.881398 42.000000
6.364632 6.840922 0.384492 37.000000
6.753544 7.277191 -0.562223 44.000000
6.765275 7.250326 -1.050138 53.000000
4.111276 6.675098 -1.405535 8.000000
6.683110 7.131677 0.880441 41.000000
5.513759 8.921532 -1.362639 8.000000
6.404598 6.851399 -0.069710 41.000000
6.748595 7.227250 -0.559816 59.000000
6.366472 6.800935 0.383439 46.000000
6.742720 7.176680 -0.557350 63.000000
6.680358 7.085042 0.877327 60.000000
5.874577 6.261337 -1.332917 5.000000
6.406410 6.811319 -0.069400 31.000000
6.771162 7.212140 -1.047526 50.000000
6.361962 6.754451 0.382050 43.000000
4.135886 6.669136 -1.406997 7.000000
6.673956 7.034877 0.873782 49.000000
6.744139 7.134194 -0.555547 55.000000
6.351728 6.702257 0.380364 41.000000
4.120884 6.599710 -1.394660 9.000000
6.765277 7.161700 -1.043055 73.000000
6.399103 6.761851 -0.068942 38.000000
6.768047 7.120733 -1.040004 62.000000
4.146876 6.596191 -1.396666 12.000000
5.811583 6.118475 -1.309386 13.000000
6.356403 6.666103 0.379498 50.000000
6.377076 6.697282 -0.068244 54.000000
6.741922 7.088152 -0.553441 47.000000
6.687942 7.006442 0.872825 54.000000
5.462833 8.660034 -1.329391 5.000000
6.687327 6.962895 0.870057 72.000000
6.767195 7.076223 -1.036407 57.000000
4.138145 6.537749 -1.386689 6.000000
5.549989 8.738592 -1.344518 5.000000
6.745007 7.047960 -0.551819 48.000000
6.359533 6.628541 0.378557 49.000000
6.372695 6.651689 -0.067842 54.000000
5.831227 6.064189 -1.305292 7.000000
6.671972 6.904370 0.865477 51.000000
6.734756 6.994153 -0.549050 37.000000
6.366707 6.604744 -0.067418 53.000000
5.524418 8.639707 -1.331535 6.000000
6.770268 7.036085 -1.033466 52.000000
6.355553 6.583832 0.377243 49.000000
4.181456 6.561500 -1.394686 13.000000
4.196253 6.540365 -1.392879 16.000000
6.742989 6.959834 -0.547911 58.000000
6.355535 6.543511 0.376154 41.000000
6.775233 6.998137 -1.030853 40.000000
5.573445 8.657711 -1.337116 10.000000
6.679931 6.870296 0.863830 63.000000
5.998766 6.200294 -1.339591 10.000000
6.368148 6.565797 -0.067118 48.000000
6.352537 6.500394 0.374915 46.000000
4.228047 6.545626 -1.396882 18.000000
6.769626 6.949543 -1.026600 61.000000
6.369410 6.526904 -0.066818 39.000000
5.889676 6.050231 -1.310205 8.000000
5.616703 8.666348 -1.341237 6.000000
6.744108 6.918382 -0.546167 58.000000
6.649432 6.797062 0.857440 33.000000
4.229869 6.504601 -1.390718 11.000000
6.352136 6.460207 0.373826 64.000000
6.761699 6.898921 -1.022019 81.000000
5.897158 6.020843 -1.307684 5.000000
6.370493 6.488065 -0.066519 43.000000
6.663965 6.770241 0.856656 49.000000
6.746435 6.878415 -0.544545 48.000000
6.776553 6.871771 -1.021045 50.000000
5.659430 8.615982 -1.338741 5.000000
6.346630 6.415111 0.372475 45.000000
5.890656 5.977396 -1.302003 8.000000
4.285921 6.546700 -1.402890 9.000000
6.369290 6.447146 -0.066185 40.000000
6.667882 6.732774 0.854577 55.000000
6.748579 6.838498 -0.542923 54.000000
5.614182 8.490297 -1.321380 3.000000
6.344431 6.373651 0.371311 51.000000
6.357324 6.395657 -0.065681 64.000000
5.954846 6.005581 -1.312440 6.000000
6.656868 6.680524 0.850688 64.000000
6.766805 6.819895 -1.016246 60.000000
6.750543 6.798634 -0.541301 57.000000
4.232879 6.422706 -1.378389 17.000000
6.663933 6.646701 0.849042 56.000000
6.748093 6.754584 -0.539315 54.000000
6.334969 6.325203 0.369775 67.000000
4.322748 6.515361 -1.401818 13.000000
5.980217 5.994275 -1.314027 5.000000
6.353587 6.352787 -0.065312 54.000000
6.681092 9.970133 0.806712 23.000000
6.770143 6.781512 -1.013522 69.000000
6.764153 6.734055 -1.009378 51.000000
4.288061 6.420318 -1.383670 8.000000
6.721754 9.972318 0.216701 14.000000
6.665901 6.607988 0.846792 57.000000
6.330942 6.282506 0.368537 45.000000
5.906258 5.883889 -1.293174 12.000000
6.674800 9.895000 0.802464 17.000000
6.345391 6.305771 -0.064875 61.000000
6.755342 6.720471 -0.538176 49.000000
6.349771 6.271515 -0.064644 61.000000
6.751079 9.961303 -0.374256 26.000000
6.730997 9.954398 -0.965897 20.000000
6.681571 9.839808 0.799755 42.000000
6.669824 6.571423 0.844800 76.000000
6.328846 6.241999 0.367410 65.000000
6.765002 6.693690 -1.006327 52.000000
5.999347 5.940093 -1.310091 4.000000
5.742558 8.513018 -1.333481 6.000000
4.331349 6.442210 -1.391486 13.000000
6.740446 6.664617 -0.535164 67.000000
6.665756 6.527227 0.841860 53.000000
6.322995 6.198066 0.366097 66.000000
6.730965 6.614516 -0.532635 78.000000
6.756816 9.904225 -0.372763 32.000000
6.345438 6.228885 -0.064275 48.000000
6.670601 9.759135 0.795058 32.000000
6.760706 6.648505 -1.002511 70.000000
6.040062 5.943825 -1.315155 6.000000
4.305313 6.361318 -1.376425 15.000000
6.760385 9.932053 -0.965743 31.000000
6.660052 6.481729 0.838749 47.000000
6.764014 6.611053 -0.999896 57.000000
4.345865 6.378951 -1.383332 9.000000
6.677875 9.705748 0.792479 29.000000
6.755325 9.859486 -0.960505 24.000000
6.321943 6.159110 0.365046 53.000000
6.758283 9.830127 0.215207 6.000000
6.754909 9.836498 -0.370825 39.000000
6.350207 6.195420 -0.064055 49.000000
5.768385 8.439171 -1.327269 5.000000
6.731236 6.574302 -0.530952 47.000000
6.740141 9.750795 -0.368135 36.000000
6.679200 9.644205 0.789258 27.000000
6.099074 5.928678 -1.320226 9.000000
6.775354 9.823951 -0.959017 38.000000
4.382113 6.389908 -1.388788 10.000000
6.762167 6.568795 -0.996517 69.000000
6.345500 6.152935 -0.063686 47.000000
6.694485 9.673712 0.212721 38.000000
6.670599 6.452260 0.837620 65.000000
6.733473 6.536236 -0.529449 70.000000
6.312817 6.112571 0.363584 67.000000
6.689827 9.603911 0.211808 34.000000
6.760839 6.527300 -0.993247 56.000000
6.315702 6.077928 0.362757 62.000000
6.730052 9.672657 -0.365752 34.000000
6.349230 6.118864 -0.063454 43.000000
6.039844 5.835139 -1.303007 8.000000
6.733384 6.496138 -0.527766 50.000000
4.359769 6.315757 -1.375179 12.000000
6.676002 6.417955 0.835887 59.000000
6.677355 9.578653 0.785716 32.000000
6.726437 9.689356 -0.947445 7.000000
6.767926 6.494137 -0.991288 66.000000
6.742999 9.649889 -0.945541 5.000000
6.702034 9.558787 0.211346 26.000000
6.672614 6.375417 0.833120 58.000000
6.316269 6.041253 0.361817 54.000000
4.360034 6.274902 -1.369014 11.000000
6.726430 9.604494 -0.363780 33.000000
6.735994 6.458866 -0.526324 51.000000
6.685493 9.527905 0.783329 32.000000
6.339094 6.071684 -0.063006 63.000000
6.114817 5.835468 -1.311713 7.000000
6.332348 6.028073 -0.062613 63.000000
4.402390 6.294524 -1.376466 13.000000
6.314498 6.002565 0.360766 52.000000
6.676105 9.452749 0.779019 34.000000
6.721528 9.556627 -0.938135 27.000000
6.719573 9.532361 -0.361636 44.000000
6.733382 6.416818 -0.524459 73.000000
6.701335 9.495710 0.210555 32.000000
6.671917 6.335705 0.830698 68.000000
6.761208 6.447955 -0.987252 62.000000
6.766532 6.413502 -0.985075 61.000000
6.112636 5.797649 -1.307295 7.000000
6.724487 9.477475 -0.360211 32.000000
6.735648 6.379653 -0.523017 66.000000
6.326121 5.985247 -0.062233 69.000000
6.715103 9.485544 -0.932979 27.000000
6.669789 9.382620 0.775092 40.000000
6.676112 6.300844 0.828880 65.000000
4.413185 6.268929 -1.373750 18.000000
6.705528 9.440063 0.209898 33.000000
6.313276 5.964633 0.359752 53.000000
6.737750 6.342535 -0.521574 68.000000
6.314065 5.928817 0.358850 62.000000
6.666011 9.316676 0.771487 27.000000
6.327703 5.950053 -0.061978 60.000000
4.431260 6.253755 -1.373395 24.000000
6.725081 9.438122 -0.930241 26.000000
6.719249 9.408826 -0.358204 32.000000
6.665624 6.252384 0.825337 68.000000
6.717005 9.395051 0.209436 31.000000
6.763752 6.371578 -0.981695 58.000000
6.067177 5.719251 -1.293394 16.000000
6.650223 9.234652 0.766598 43.000000
5.832878 8.152170 -1.300820 3.000000
6.147376 5.759356 -1.307150 7.000000
6.770210 6.338565 -0.979736 66.000000
6.642517 6.192496 0.820328 51.000000
6.710157 9.324903 0.208510 46.000000
6.715988 9.343544 -0.356334 33.000000
4.420714 6.198511 -1.363962 10.000000
6.325476 5.911491 -0.061666 71.000000
6.730212 6.296597 -0.519347 92.000000
6.729604 9.383440 -0.926753 43.000000
6.313234 5.891688 0.357874 51.000000
6.306374 5.849183 0.356600 53.000000
6.722892 9.282414 0.208094 40.000000
6.737074 6.264362 -0.518327 67.000000
6.663876 9.194011 0.764983 33.000000
6.227155 5.798348 -1.320748 7.000000
6.742023 9.340130 -0.924430 28.000000
6.733488 9.307513 -0.355695 32.000000
4.489062 6.253596 -1.379585 16.000000
6.765615 6.295414 -0.976137 79.000000
6.328933 5.878445 -0.061444 57.000000
6.592801 6.108428 0.812216 38.000000
4.499582 6.227843 -1.376867 12.000000
6.311065 5.817616 0.355924 41.000000
6.715982 9.213279 0.207186 37.000000
6.732584 9.246426 -0.353993 32.000000
6.737831 9.274265 -0.919771 33.000000
6.480346 5.967349 0.796775 32.000000
6.068115 5.615538 -1.282191 9.000000
6.659100 9.128389 0.761382 53.000000
6.767385 6.258429 -0.973519 69.000000
5.920037 8.167574 -1.309326 4.000000
6.730607 6.219949 -0.516218 57.000000
6.329307 5.842721 -0.061176 53.000000
6.768992 6.221491 -0.970902 78.000000
6.738006 9.214950 -0.915779 25.000000
6.708712 9.144274 0.206278 36.000000
6.665211 9.078163 0.758999 42.000000
6.512584 5.960225 0.798409 35.000000
6.317734 5.796232 -0.060724 58.000000
6.736427 6.187116 -0.515136 67.000000
4.504778 6.194928 -1.372515 14.000000
6.291311 5.763793 0.354017 53.000000
5.962599 8.173388 -1.313312 5.000000
6.107113 5.616953 -1.286937 16.000000
6.718956 9.168508 -0.351572 34.000000
4.555726 6.224708 -1.382507 6.000000
6.729608 9.144485 -0.910620 42.000000
6.763832 6.178568 -0.967301 74.000000
6.310368 5.753912 -0.060342 84.000000
6.284585 5.722260 0.352782 48.000000
6.663957 9.018357 0.755847 47.000000
6.737686 6.150267 -0.513691 66.000000
6.709401 9.086658 0.205580 30.000000
6.362092 5.786675 0.778657 37.000000
6.723313 9.115687 -0.350211 34.000000
6.186769 5.620551 -1.296745 17.000000
6.728555 9.084568 -0.906544 31.000000
6.257890 5.656872 0.764425 63.000000
6.714895 9.046080 -0.348132 38.000000
6.698463 9.013881 0.204598 30.000000
5.965489 8.072896 -1.302717 3.000000
6.663590 8.960246 0.752823 39.000000
6.277663 5.680823 0.351547 66.000000
6.765831 6.142418 -0.964793 67.000000
6.296876 5.706319 -0.059867 58.000000
4.524028 6.141843 -1.366716 12.000000
6.741001 6.115481 -0.512427 71.000000
6.735270 6.072711 -0.510439 81.000000
6.735539 9.035925 -0.903635 42.000000
6.023368 8.099083 -1.310152 6.000000
6.292809 5.667565 -0.059541 73.000000
6.660538 8.899027 0.749542 51.000000
6.709105 8.980612 -0.346224 38.000000
6.761769 6.100986 -0.961411 65.000000
6.690737 8.946058 0.203705 47.000000
6.274261 5.642825 0.350499 65.000000
4.561017 6.152415 -1.372351 8.000000
6.185664 5.584997 -1.292798 14.000000
6.264101 5.627660 0.763127 46.000000
6.694689 8.894343 0.203112 33.000000
6.132567 8.193213 -1.328993 5.000000
6.724341 8.963418 -0.898225 34.000000
6.732314 6.032699 -0.508692 72.000000
6.259044 5.588508 0.760535 61.000000
6.708384 8.922453 -0.344623 37.000000
6.262490 5.597573 0.349040 44.000000
6.763436 6.064947 -0.958902 82.000000
4.606350 6.173849 -1.380527 11.000000
6.187338 5.552142 -1.289484 10.000000
6.670387 8.855443 0.747674 38.000000
6.291544 5.631558 -0.059261 60.000000
6.761978 6.026310 -0.955957 63.000000
6.264239 5.558700 0.759151 46.000000
4.584500 6.105448 -1.368005 14.000000
6.737991 8.924459 -0.896317 27.000000
6.266934 5.567051 0.348402 71.000000
6.729921 5.993425 -0.507005 75.000000
6.044907 8.024774 -1.303934 4.000000
6.296092 5.600930 -0.059072 58.000000
6.673397 8.803137 0.745099 34.000000
6.712196 8.870757 -0.343297 36.000000
6.700199 8.845078 0.202565 38.000000
6.182238 5.513413 -1.284747 5.000000
6.191736 5.487870 -1.283171 4.000000
4.606176 6.095276 -1.368918 7.000000
6.705627 8.825214 -0.888072 18.000000
6.706062 8.806403 -0.341422 46.000000
6.266007 5.531924 0.347502 64.000000
6.723615 5.950916 -0.505016 73.000000
6.757370 5.985101 -0.952574 76.000000
6.297516 5.567678 -0.058837 66.000000
6.259597 5.520343 0.756646 58.000000
6.673728 8.747724 0.742268 34.000000
6.703045 8.792685 0.201957 40.000000
6.705680 8.750102 -0.339890 38.000000
6.670741 8.688436 0.739116 48.000000
6.754066 5.945292 -0.949410 72.000000
6.295792 5.531829 -0.058556 78.000000
6.581274 8.606750 -0.867241 31.000000
6.269431 5.500811 0.346827 53.000000
4.625450 6.081898 -1.369105 9.000000
6.260772 5.487322 0.754831 51.000000
6.268550 5.521727 -1.295977 10.000000
6.701370 8.734804 0.201245 47.000000
6.723106 5.913777 -0.503511 63.000000
6.298425 5.499990 -0.058344 69.000000
6.753574 5.908178 -0.946683 73.000000
6.670506 8.633194 0.736285 37.000000
6.596703 8.572309 -0.865749 29.000000
6.338202 5.548660 -1.307203 11.000000
6.703682 8.682557 0.200638 43.000000
6.723183 5.877354 -0.502066 86.000000
6.705626 8.694677 -0.338392 48.000000
4.633920 6.054409 -1.366024 13.000000
6.247532 5.441911 0.751377 73.000000
6.271969 5.469072 0.346114 61.000000
6.754417 5.872428 -0.944175 84.000000
6.608931 8.533914 -0.863840 36.000000
4.660278 6.050288 -1.368391 12.000000
6.294119 5.476030 -1.294248 20.000000
6.726868 5.844260 -0.500923 70.000000
6.271351 5.434751 0.345252 59.000000
6.706520 8.640915 -0.336963 35.000000
6.705123 8.629588 0.200015 44.000000
6.248382 5.409024 0.749562 66.000000
6.297146 5.464910 -0.058075 60.000000
6.682251 8.593789 0.734738 37.000000
6.245313 5.372934 0.747316 61.000000
6.627727 8.504169 -0.862847 34.000000
6.754353 5.836079 -0.941557 65.000000
6.121633 7.872442 -1.294023 7.000000
6.716778 8.590078 0.199648 40.000000
6.269825 5.399832 0.344353 59.000000
6.730414 5.811199 -0.499779 75.000000
6.712687 8.594316 -0.335841 48.000000
6.679052 8.535536 0.731650 34.000000
6.299498 5.433156 -0.057862 66.000000
6.258613 5.411476 -1.283189 8.000000
4.697506 6.060047 -1.374025 10.000000
6.234511 5.330439 0.744208 80.000000
6.735334 5.779472 -0.498757 70.000000
6.274975 5.370824 0.343790 70.000000
6.647633 8.475958 -0.862021 29.000000
6.519291 8.279076 0.712332 15.000000
6.257215 5.376801 -1.279400 7.000000
4.709419 6.037081 -1.372033 11.000000
6.294882 5.395580 -0.057547 84.000000
6.763932 5.808205 -0.940359 86.000000
6.732226 8.565042 -0.335472 42.000000
6.707840 8.524656 0.198786 34.000000
6.270874 5.334064 0.342779 64.000000
6.202337 7.875991 -1.301067 6.000000
6.467772 8.162081 0.704370 7.000000
6.295423 5.362624 -0.057312 82.000000
6.757527 5.766775 -0.936867 74.000000
6.237171 5.299675 0.742651 67.000000
4.734601 6.031109 -1.374036 7.000000
6.244401 5.332565 -1.273240 6.000000
6.687193 8.472729 -0.863863 41.000000
6.714431 8.488710 -0.333049 33.000000
6.736327 5.744530 -0.497433 71.000000
6.480955 8.127381 0.703143 15.000000
6.240408 5.296128 -1.268977 9.000000
4.751252 6.014242 -1.373497 12.000000
6.754722 5.728654 -0.933921 69.000000
6.667271 8.394444 -0.857702 23.000000
6.581036 8.267949 -0.324294 9.000000
6.238179 5.267659 0.740923 78.000000
6.284981 7.930702 -1.313675 7.000000
6.437726 8.079168 0.191027 16.000000
6.301925 5.334886 -0.057168 75.000000
6.737168 5.709637 -0.496108 69.000000
6.266606 5.297380 0.341768 63.000000
4.748250 5.972706 -1.367147 9.000000
6.560740 8.190795 -0.321802 4.000000
6.185627 7.756444 -1.287155 4.000000
6.734043 5.671577 -0.494481 78.000000
6.396774 7.977497 0.189447 42.000000
6.462118 8.052996 0.698645 27.000000
6.536138 8.177841 -0.836703 7.000000
6.262938 5.261415 0.340795 59.000000
6.757066 5.695090 -0.931740 67.000000
6.241338 5.237608 0.739453 67.000000
6.302961 5.302651 -0.056944 66.000000
6.261409 5.227445 0.339933 66.000000
6.563695 8.160856 -0.837043 8.000000
6.400236 7.926020 0.689785 41.000000
6.758506 5.660927 -0.929450 82.000000
6.305393 5.271743 -0.056743 75.000000
6.578308 8.161295 -0.321399 10.000000
6.242842 5.206311 0.737810 65.000000
6.319698 5.297075 -1.278785 12.000000
6.736104 5.638076 -0.493277 87.000000
4.759174 5.948900 -1.364974 9.000000
6.411167 7.945389 0.189200 29.000000
6.319702 7.825498 -1.305606 10.000000
6.314679 5.259962 -1.274364 8.000000
4.830469 6.000120 -1.380595 11.000000
6.730351 5.598231 -0.491470 82.000000
6.403984 7.886885 0.188444 50.000000
6.604574 8.142629 -0.321475 11.000000
6.304619 5.238313 -0.056496 90.000000
6.241911 5.173147 0.735909 69.000000
6.264345 5.197363 0.339295 73.000000
6.759801 5.626809 -0.927160 88.000000
6.424521 7.906350 0.689778 33.000000
6.616925 8.175529 -0.840802 17.000000
6.267925 5.167948 0.338695 70.000000
6.634421 8.145922 -0.839809 11.000000
6.424730 7.857257 0.687333 34.000000
6.421820 7.859463 0.188287 43.000000
6.621305 8.112267 -0.321037 13.000000
6.308324 5.208759 -0.056318 82.000000
6.248526 5.146373 0.734871 62.000000
6.299605 5.214743 -1.267888 12.000000
4.808593 5.935626 -1.368798 8.000000
6.334299 7.794538 -1.303623 8.000000
6.733647 5.566108 -0.490387 83.000000
6.763247 5.594638 -0.925197 93.000000
6.269839 5.137293 0.338020 65.000000
4.796316 5.883512 -1.359906 8.000000
6.249638 5.115190 0.733228 62.000000
6.427477 7.817335 0.187846 32.000000
6.395520 7.772800 0.681937 51.000000
6.346882 7.761262 -1.301243 4.000000
6.732955 5.530848 -0.489001 85.000000
6.648699 8.095004 -0.321181 21.000000
6.315000 5.181770 -0.056185 86.000000
6.657484 8.123219 -0.839567 14.000000
6.290414 5.174686 -1.262676 11.000000
6.759650 5.556816 -0.922251 72.000000
6.679837 8.099682 -0.839241 17.000000
6.670954 8.071490 -0.321052 27.000000
6.314596 5.149099 -0.055949 70.000000
6.753576 5.517182 -0.918977 90.000000
6.283246 5.116142 0.337904 60.000000
6.422734 7.762923 0.187165 41.000000
4.855532 5.918929 -1.371896 14.000000
6.724378 5.489332 -0.487012 83.000000
6.332859 7.695847 -1.293292 10.000000
6.281801 5.135359 -1.257623 12.000000
6.399597 7.729324 0.679942 56.000000
6.247528 5.081532 0.731241 59.000000
4.826688 5.847150 -1.358283 8.000000
6.300465 5.098102 0.337974 46.000000
6.392488 7.719883 -1.300859 8.000000
6.249250 5.076829 -1.247669 10.000000
6.419638 7.710920 0.186529 38.000000
6.400273 7.682063 0.677625 52.000000
6.695684 8.050987 -0.321059 49.000000
6.749637 5.479518 -0.916031 78.000000
6.288652 5.083016 0.734083 52.000000
6.331140 5.130334 -0.055965 67.000000
6.699561 8.073018 -0.838581 24.000000
6.730336 5.459871 -0.486170 94.000000
6.409859 7.651346 0.185743 43.000000
6.429471 7.716221 -1.303652 6.000000
6.733069 5.427920 -0.485087 79.000000
6.704952 8.012020 -0.320245 37.000000
6.337504 5.103360 -0.055832 69.000000
6.696819 8.019547 -0.835004 49.000000
6.661012 5.356230 0.354483 67.000000
6.750171 5.445676 -0.913740 101.000000
4.827628 5.811899 -1.353385 14.000000
6.653690 5.344527 0.772878 67.000000
6.278624 5.068801 -1.250518 10.000000
6.391098 7.623404 0.674347 56.000000
6.741900 5.400997 -0.484487 90.000000
6.666940 5.321605 0.772529 90.000000
4.855533 5.809128 -1.356296 9.000000
6.713053 7.989049 -0.833927 45.000000
6.752889 5.413747 -0.911777 87.000000
6.445468 7.687349 -1.302067 7.000000
6.277203 5.035917 -1.247045 12.000000
6.403511 7.590800 0.673249 39.000000
6.422987 7.619420 0.185497 31.000000
6.394504 5.117015 -0.056441 57.000000
6.688340 5.344507 0.355001 92.000000
6.715976 7.975364 -0.319533 57.000000
6.763247 5.388049 -0.910907 107.000000
6.675446 5.308409 -0.060313 86.000000
6.743603 5.368474 -0.483343 72.000000
4.831531 5.744555 -1.344317 6.000000
6.725301 7.953963 -0.832350 42.000000
6.676991 5.296175 0.771835 56.000000
6.411389 7.558517 0.184682 39.000000
6.698445 5.318992 0.354699 82.000000
6.400603 7.586505 -1.287881 8.000000
6.414493 7.556671 0.672024 31.000000
6.722960 7.934143 -0.318616 53.000000
6.388365 7.479307 0.667142 50.000000
6.730403 7.893714 -0.317733 55.000000
6.732229 7.912807 -0.830107 54.000000
4.901256 5.791232 -1.359212 13.000000
6.518185 7.677870 -1.307387 6.000000
6.439417 5.081089 0.341611 35.000000
6.775070 5.363573 -0.910256 108.000000
6.763954 5.350858 -0.483649 103.000000
6.695622 5.291006 -0.060374 77.000000
6.411169 7.511444 0.184136 32.000000
6.402247 7.454585 0.183395 36.000000
6.762591 5.320018 -0.906217 64.000000
6.559077 5.156080 -0.466615 42.000000
6.735077 7.867144 -0.827363 46.000000
6.727896 7.841941 -0.316336 38.000000
6.504997 7.614894 -1.299833 6.000000
6.381997 7.425629 0.664248 51.000000
4.893481 5.746233 -1.351954 15.000000
4.872032 5.685663 -1.340882 13.000000
6.379931 7.377343 0.661804 43.000000
6.727748 7.793282 -0.315076 56.000000
6.492778 7.553575 -1.292545 5.000000
6.409389 7.416759 0.183029 42.000000
6.740312 7.824556 -0.824952 40.000000
6.720153 7.736402 -0.313439 58.000000
6.739472 7.775236 -0.821791 43.000000
6.375663 7.326881 0.659168 57.000000
6.397980 7.357840 0.182245 55.000000
4.888811 5.669945 -1.340706 14.000000
6.523057 7.541863 -1.294010 9.000000
6.737082 7.724493 -0.818463 64.000000
6.393516 7.307336 0.181624 41.000000
6.386930 7.294530 0.658071 33.000000
6.542258 7.517331 -1.293221 6.000000
6.722143 7.690925 -0.312316 40.000000
4.926816 5.678678 -1.346522 12.000000
6.485592 7.406283 -1.277046 6.000000
6.384859 7.247208 0.655691 43.000000
4.893742 5.605779 -1.332363 10.000000
6.392108 7.260680 0.181079 43.000000
6.747597 7.688813 -0.816803 53.000000
6.733820 7.656763 -0.311707 36.000000
6.535161 7.416832 -1.282491 7.000000
6.395116 7.219339 0.180638 44.000000
6.735413 7.611379 -0.310584 38.000000
6.382558 7.199967 0.653311 40.000000
6.734860 7.627006 -0.812224 60.000000
4.923254 5.604771 -1.335819 15.000000
6.590117 7.433076 -1.288997 4.000000
6.741011 7.586946 -0.810063 46.000000
6.374711 7.146852 0.650418 51.000000
6.387949 7.166856 0.179973 46.000000
4.956717 5.608052 -1.340363 15.000000
6.728813 7.557103 -0.309050 63.000000
5.040594 5.667737 -1.358891 7.000000
6.741000 7.540237 -0.807152 34.000000
6.375268 7.103507 0.648360 44.000000
6.726613 7.508148 -0.307755 59.000000
6.569324 7.364024 -1.280249 8.000000
6.386530 7.121182 0.179443 48.000000
6.386231 7.077069 0.178943 47.000000
4.997595 5.584858 -1.342190 11.000000
6.604470 7.357845 -1.282776 9.000000
6.374949 7.059484 0.646236 33.000000
6.734098 7.486194 -0.803407 65.000000
6.723507 7.458537 -0.306426 66.000000
6.367035 7.007409 0.643408 52.000000
6.385722 7.033024 0.178443 55.000000
6.591123 7.297842 -1.275620 5.000000
6.740977 7.447773 -0.801413 58.000000
5.097001 5.660808 -1.364894 6.000000
6.717474 7.406055 -0.304960 71.000000
6.642156 7.309118 -1.281330 5.000000
6.378931 6.982409 0.177808 44.000000
6.728031 7.372130 -0.304350 52.000000
6.366946 6.964284 0.641349 38.000000
5.015253 5.535878 -1.337660 14.000000
6.745000 7.406435 -0.799085 58.000000
6.725595 7.324227 -0.303090 66.000000
6.588269 7.205346 -1.266215 5.000000
6.744117 7.360003 -0.796173 57.000000
6.371890 6.931901 0.177173 46.000000
5.022271 5.509569 -1.334941 19.000000
6.363949 6.918289 0.639034 40.000000
6.701648 7.284267 -1.284262 14.000000
6.355983 6.867254 0.636270 47.000000
6.722250 7.275676 -0.301795 56.000000
6.745717 7.316574 -0.793595 47.000000
5.268597 5.744044 -1.397596 4.000000
6.377504 6.895445 0.176823 48.000000
6.350484 6.819253 0.633763 63.000000
5.118706 5.546549 -1.352021 18.000000
6.371370 6.846581 0.176218 59.000000
6.745757 7.271744 -0.790850 58.000000
6.720713 7.229410 -0.300603 58.000000
6.695000 7.232408 -1.278564 9.000000
5.086156 5.477519 -1.338588 11.000000
6.693503 7.186458 -1.273928 10.000000
6.756470 7.238636 -0.789439 41.000000
6.708028 7.171548 -0.298862 76.000000
6.342704 6.769166 0.631063 72.000000
6.371833 6.805115 0.175763 60.000000
6.748617 7.185924 -0.785777 51.000000
6.720405 7.140750 -0.298389 62.000000
5.099578 5.458298 -1.337685 17.000000
6.374160 6.765894 0.175354 58.000000
6.333992 6.718467 0.628299 67.000000
6.697890 7.147092 -1.270485 12.000000
6.722344 7.099063 -0.297402 57.000000
6.333961 6.677293 0.626369 58.000000
6.370800 6.720920 0.174824 57.000000
5.136517 5.464112 -1.343137 17.000000
6.706180 7.112092 -1.267838 14.000000
6.743927 7.136949 -0.782532 61.000000
6.361012 6.669520 0.174160 56.000000
6.324776 6.626802 0.623605 39.000000
6.745184 7.094568 -0.780037 52.000000
5.129593 5.423334 -1.336787 20.000000
6.687702 7.049078 -1.260018 20.000000
6.715815 7.048752 -0.296004 50.000000
6.361358 6.629061 0.173720 51.000000
6.324331 6.585783 0.621676 39.000000
6.705188 7.024227 -1.259229 18.000000
5.150955 5.412556 -1.338062 10.000000
6.717343 7.007202 -0.295017 52.000000
6.737974 7.043609 -0.776541 75.000000
6.742959 7.005680 -0.774546 65.000000
5.143720 5.371881 -1.331711 12.000000
6.352483 6.579316 0.173086 54.000000
6.719374 6.966428 -0.294064 58.000000
6.313288 6.534070 0.618784 53.000000
6.718464 6.995048 -1.257643 28.000000
6.353121 6.539725 0.172661 63.000000
6.723356 6.957304 -1.254466 31.000000
6.311730 6.492500 0.616790 67.000000
6.738066 6.957768 -0.771384 58.000000
6.712862 6.917105 -0.292700 63.000000
5.164955 5.361029 -1.332987 12.000000
6.717287 6.879324 -0.291884 51.000000
6.723931 6.915335 -1.250492 35.000000
5.221781 5.386796 -1.343707 7.000000
6.352877 6.499477 0.172222 65.000000
6.740596 6.917801 -0.769139 58.000000
6.318355 6.459559 0.615566 50.000000
6.311530 6.413129 0.613123 52.000000
6.728474 6.877676 -1.247315 32.000000
6.742943 6.877884 -0.766893 55.000000
6.715238 6.835168 -0.290760 67.000000
5.236222 5.368640 -1.343167 14.000000
6.341224 6.447891 0.171543 59.000000
6.303779 6.366094 0.610617 52.000000
6.716495 6.794641 -0.289807 62.000000
6.740210 6.833054 -0.764064 64.000000
6.724501 6.831582 -1.242545 33.000000
6.351828 6.419172 0.171343 52.000000
6.302845 6.326234 0.608751 40.000000
6.727287 6.792617 -1.239102 29.000000
6.744287 6.795375 -0.762069 52.000000
6.709107 6.745671 -0.288442 68.000000
5.231045 5.297944 -1.333188 20.000000
6.324911 6.352910 0.170350 42.000000
6.714211 6.709522 -0.287695 65.000000
5.263222 5.297908 -1.337370 22.000000
6.292537 6.277281 0.606052 54.000000
6.676705 6.700361 -1.225577 22.000000
6.323842 6.312999 0.169911 39.000000
6.729177 6.738705 -0.757822 71.000000
6.728621 6.696949 -0.755327 71.000000
5.246064 5.248369 -1.328657 16.000000
6.290496 6.236879 0.604123 64.000000
6.321166 6.271748 0.169442 54.000000
6.728119 6.710632 -1.231420 30.000000
6.715611 6.669886 -0.286776 55.000000
6.694453 6.636250 -1.221211 26.000000
6.323995 6.236187 0.169093 48.000000
6.282578 6.190948 0.601681 71.000000
5.257955 5.228092 -1.327572 14.000000
6.721099 6.634514 -0.286062 62.000000
6.737795 6.665067 -0.753998 63.000000
6.737383 6.637933 -1.225462 53.000000
6.713587 6.586579 -0.284732 65.000000
6.281570 6.152103 0.599880 66.000000
6.319522 6.193672 0.168594 60.000000
5.298463 5.236116 -1.333933 13.000000
6.738307 6.624811 -0.751669 73.000000
5.297656 5.203308 -1.329579 16.000000
6.719446 6.552004 -0.284052 69.000000
6.282529 6.115411 0.598271 56.000000
6.727961 6.588119 -1.219896 36.000000
6.741486 6.587400 -0.749674 71.000000
6.314131 6.150546 0.168080 58.000000
6.734488 6.540317 -0.746511 56.000000
6.718694 6.511199 -0.283064 61.000000
6.276147 6.071836 0.596021 60.000000
5.327675 5.200761 -1.333216 10.000000
6.711901 6.532206 -1.213136 30.000000
6.307817 6.106815 0.167551 66.000000
5.308299 5.150173 -1.324140 15.000000
6.711994 6.464914 -0.281802 64.000000
6.277473 6.035962 0.594477 57.000000
6.304898 6.066648 0.167098 64.000000
6.657077 6.439259 -1.199212 23.000000
6.738741 6.504406 -0.744682 60.000000
6.738522 6.464395 -0.742353 70.000000
6.714685 6.455196 -1.206249 33.000000
6.303960 6.028627 0.166689 66.000000
5.348154 5.157058 -1.330319 11.000000
6.280804 6.002204 0.593125 57.000000
6.713740 6.427023 -0.280951 71.000000
6.281815 5.966423 0.591581 77.000000
6.730183 6.416885 -0.739106 57.000000
6.714593 6.388494 -0.280066 69.000000
6.310825 5.998244 0.166444 48.000000
6.676388 6.379128 -1.195509 23.000000
5.341930 5.119545 -1.324694 17.000000
6.731877 6.392726 -1.202148 40.000000
6.725958 6.373598 -0.736360 85.000000
6.721085 6.355510 -0.279455 78.000000
5.372572 5.117368 -1.328512 18.000000
6.301565 5.952777 0.165871 60.000000
6.283392 5.931376 0.590101 61.000000
6.281900 5.893647 0.588364 66.000000
6.300107 5.914948 0.165462 73.000000
6.731691 6.339958 -0.734781 62.000000
6.708913 6.331923 -1.194326 29.000000
5.386103 5.098834 -1.327972 17.000000
6.716509 6.312285 -0.278330 70.000000
6.730003 6.299537 -0.732368 67.000000
6.278776 5.854622 0.586500 68.000000
6.714567 6.298432 -1.191811 27.000000
6.721961 6.278695 -0.277684 60.000000
6.302866 5.881275 0.165143 69.000000
5.428950 5.107878 -1.334877 13.000000
5.433815 5.081129 -1.332158 22.000000
6.729591 6.260542 -0.730122 80.000000
6.287874 5.831331 0.164465 89.000000
6.282063 5.821774 0.585212 59.000000
6.751264 6.294017 -1.195000 36.000000
6.723605 6.241733 -0.276867 71.000000
6.277864 5.782203 0.583284 86.000000
5.406859 5.024960 -1.321447 10.000000
6.730231 6.209561 -0.276290 52.000000
6.736322 6.228372 -0.728710 57.000000
6.287345 5.795081 0.164087 85.000000
6.752359 6.256442 -1.191689 56.000000
6.734112 6.188132 -0.726297 64.000000
6.753287 6.218919 -1.188378 60.000000
6.726406 6.167955 -0.275233 64.000000
5.441763 5.026353 -1.326355 18.000000
6.277163 5.746080 0.581676 87.000000
6.288130 5.760240 0.163738 51.000000
6.740882 6.169410 -1.182679 40.000000
6.728301 6.131815 -0.274451 74.000000
5.449911 5.002988 -1.324543 21.000000
6.275561 5.709346 0.580004 73.000000
6.732454 6.148636 -0.723967 71.000000
6.279144 5.716702 0.163195 57.000000
6.699631 6.094037 -1.171805 26.000000
6.274533 5.673344 0.578396 71.000000
6.277368 5.679978 0.162801 73.000000
6.734307 6.112556 -0.722054 69.000000
6.721886 6.088346 -0.273291 63.000000
6.274087 5.638069 0.576852 57.000000
6.733783 6.074521 -0.719891 66.000000
6.712296 6.042299 -0.271994 87.000000
6.721973 6.076777 -1.172474 37.000000
6.276169 5.643989 0.162423 83.000000
6.269761 5.599528 0.574988 73.000000
6.724181 6.028568 -0.716727 84.000000
6.281521 5.614053 0.162179 61.000000
6.723620 6.040897 -1.169428 39.000000
6.707703 6.001031 -0.270937 63.000000
6.739903 6.018262 -1.169035 42.000000
6.273470 5.568351 0.573829 72.000000
6.280018 5.578166 0.161801 73.000000
6.705162 5.961840 -0.269982 70.000000
6.732969 5.999297 -0.715648 62.000000
6.710684 5.929997 -0.269405 74.000000
6.723479 5.966650 -1.162805 33.000000
6.721490 5.952199 -0.712318 83.000000
6.262074 5.524007 0.571388 79.000000
6.285852 5.548954 0.161572 64.000000
6.732829 5.938132 -1.161218 41.000000
6.712318 5.894882 -0.268656 68.000000
6.275025 5.505259 0.161014 78.000000
6.260223 5.488333 0.569780 71.000000
6.726248 5.919707 -0.710822 84.000000
6.252944 5.448136 0.567724 50.000000
6.277561 5.473505 0.160726 71.000000
6.732374 5.901124 -1.157906 38.000000
6.729371 5.885929 -0.709159 84.000000
6.713800 5.859811 -0.267907 69.000000
6.719662 5.828715 -0.267364 66.000000
6.259549 5.424117 0.160034 85.000000
6.737736 5.869379 -1.155656 37.000000
6.735359 5.854802 -0.707829 91.000000
6.234912 5.398895 0.564770 43.000000
6.737447 5.820438 -0.706083 65.000000
6.715551 5.789159 -0.266375 90.000000
6.254937 5.386630 0.159611 83.000000
6.737720 5.833119 -1.152477 46.000000
6.246905 5.375840 0.564380 74.000000
6.735606 5.782872 -0.703919 87.000000
6.239089 5.335907 0.562324 59.000000
6.739048 5.798206 -1.149563 41.000000
6.260793 5.358319 0.159397 56.000000
6.709743 5.748383 -0.265317 83.000000
6.743240 5.765916 -1.147179 41.000000
6.699943 5.704460 -0.264088 91.000000
6.237934 5.301887 0.560845 65.000000
6.735116 5.746666 -0.701923 74.000000
6.256630 5.321606 0.158989 76.000000
6.696805 5.666459 -0.263168 101.000000
6.264523 5.295291 0.158820 57.000000
6.227477 5.260201 0.558597 75.000000
6.751832 5.737503 -1.145592 40.000000
6.732945 5.709228 -0.699759 75.000000
6.704209 5.637530 -0.262727 65.000000
6.751978 5.702062 -1.142546 54.000000
6.262357 5.260623 0.158457 66.000000
6.735183 5.675710 -0.698096 67.000000
6.235938 5.234661 0.557951 51.000000
6.699225 5.598362 -0.261738 63.000000
6.225136 5.193144 0.555703 74.000000
6.765643 5.678136 -1.141887 43.000000
6.265413 5.230500 0.158199 83.000000
6.728871 5.635197 -0.695515 67.000000
6.722374 5.594776 -0.692935 79.000000
6.263723 5.196579 0.157851 76.000000
6.704063 5.567573 -0.261194 74.000000
6.759426 5.637683 -1.137779 51.000000
6.230279 5.165112 0.554801 58.000000
6.222980 5.126950 0.552873 73.000000
6.267288 5.167169 0.157608 60.000000
6.729521 5.565875 -0.691855 88.000000
6.705690 5.534264 -0.260513 72.000000
6.756843 5.600483 -1.134334 66.000000
6.751033 5.560833 -1.130359 85.000000
6.704084 5.498464 -0.259695 83.000000
6.226320 5.097728 0.551843 79.000000
6.726542 5.528761 -0.689691 78.000000
6.272278 5.139052 0.157394 71.000000
6.724170 5.492348 -0.687611 78.000000
6.560200 5.337313 0.578188 49.000000
6.276379 5.110322 0.157166 86.000000
6.741975 5.518761 -1.125852 82.000000
6.697672 5.458940 -0.258672 92.000000
6.644083 5.371721 0.583761 78.000000
6.723961 5.457884 -0.685780 81.000000
6.738107 5.481173 -1.122275 75.000000
6.701958 5.428308 -0.258128 69.000000
6.332462 5.123731 0.157938 29.000000
6.665200 5.355062 0.584141 77.000000
6.599158 5.305916 0.162743 35.000000
6.722827 5.422849 -0.683866 97.000000
6.693657 5.387681 -0.257035 101.000000
6.741782 5.449888 -1.120023 71.000000
6.429521 5.133452 0.968832 29.000000
6.672235 5.327124 0.583368 54.000000
6.744556 5.418013 -1.117640 71.000000
6.733210 5.397216 -0.683204 84.000000
6.704689 5.362755 -0.256800 86.000000
6.614623 5.285023 0.162724 33.000000
6.713283 5.335946 -0.256462 93.000000
6.752623 5.390498 -1.116185 73.000000
6.358982 5.049082 0.157537 16.000000
6.738820 5.367847 -0.682041 86.000000
6.752040 5.356212 -1.113271 92.000000
6.749003 5.342203 -0.681378 75.000000
6.766104 5.333633 -1.112877 69.000000
