# .PCD v0.7 - Point Cloud Data file format
VERSION 0.7
FIELDS x y z intensity
SIZE 4 4 4 4
TYPE F F F F
COUNT 1 1 1 1
WIDTH 83
HEIGHT 1
VIEWPOINT 0 0 0 1 0 0 0
POINTS 83
DATA ascii
1.009567 6.834481 4.049904 9.000000
1.027988 6.817414 4.041846 10.000000
1.047896 6.809684 4.039296 13.000000
1.064830 6.784836 4.026731 11.000000
1.085223 6.780411 4.026187 15.000000
1.101644 6.753769 4.012624 12.000000
1.120841 6.743269 4.008574 10.000000
1.138887 6.726757 4.001021 7.000000
1.393871 6.680578 4.995885 7.000000
1.411355 6.664163 4.987056 8.000000
1.429855 6.652439 4.981746 7.000000
1.471699 6.635263 4.465948 6.000000
1.483121 6.594569 4.441969 18.000000
1.501482 6.583207 4.437587 12.000000
1.512332 6.541662 4.413066 13.000000
1.530477 6.530220 4.408684 10.000000
1.543823 6.500026 4.391785 7.000000
1.564535 6.499061 4.394481 11.000000
1.577648 6.468803 4.377583 15.000000
1.594639 6.453938 4.371027 12.000000
1.610474 6.434976 4.361750 15.000000
1.627533 6.420836 4.355740 11.000000
1.643864 6.404225 4.348098 14.000000
1.659204 6.384338 4.338279 12.000000
1.674885 6.366034 4.329549 12.000000
1.692311 6.354150 4.325175 11.000000
1.707376 6.334154 4.315358 10.000000
1.726531 6.328628 4.315339 15.000000
1.743303 6.314994 4.309878 11.000000
1.759778 6.300512 4.303874 16.000000
1.773060 6.275540 4.290793 11.000000
1.790582 6.264997 4.287512 7.000000
1.813200 6.271252 4.295661 5.000000
1.233116 6.906997 4.922439 11.000000
1.269542 6.765800 4.831090 9.000000
1.293000 6.776099 4.841324 8.000000
1.305914 6.735669 4.815630 15.000000
1.320296 6.703256 4.795640 10.000000
1.339344 6.693298 4.791618 14.000000
1.356419 6.674461 4.781323 10.000000
1.371799 6.648366 4.765898 13.000000
1.388109 6.627045 4.753895 13.000000
1.407775 6.620900 4.752728 10.000000
1.421480 6.589091 4.733311 17.000000
1.440851 6.582048 4.731576 12.000000
1.457332 6.562962 4.721286 9.000000
1.476012 6.553417 4.717841 10.000000
1.492309 6.534245 4.707552 9.000000
1.510295 6.522209 4.702398 14.000000
1.527426 6.506938 4.694963 5.000000
1.544462 6.491622 4.687528 13.000000
1.557524 6.461149 4.669257 13.000000
1.591691 6.497380 4.210164 7.000000
1.607879 6.479074 4.201705 7.000000
1.572920 6.440194 4.657832 15.000000
1.621118 6.450063 4.186387 6.000000
1.589257 6.423176 4.649259 15.000000
1.605491 6.406117 4.640686 10.000000
1.637295 6.432510 4.178456 6.000000
1.617772 6.374747 4.621848 4.000000
1.650456 6.404268 4.163667 17.000000
1.665516 6.383371 4.153627 14.000000
1.680472 6.362442 4.143588 8.000000
1.694845 6.339847 4.132493 17.000000
1.710968 6.323754 4.125621 16.000000
1.727968 6.310884 4.120860 14.000000
1.742272 6.289004 4.110295 16.000000
1.756218 6.266282 4.099204 19.000000
1.772482 6.251667 4.093389 18.000000
1.788429 6.236198 4.087047 12.000000
1.803810 6.219066 4.079650 9.000000
1.817838 6.197841 4.069617 15.000000
1.834804 6.186315 4.065915 18.000000
1.850435 6.170693 4.059576 15.000000
1.865218 6.152607 4.051653 18.000000
1.878337 6.129639 4.040567 15.000000
1.893702 6.113914 4.034229 18.000000
1.910062 6.101378 4.030003 10.000000
1.926103 6.087993 4.025249 11.000000
1.942352 6.075370 4.021024 15.000000
1.960178 6.067531 4.019965 10.000000
1.976316 6.054820 4.015741 10.000000
1.992407 6.042064 4.011518 18.000000
